ply
format ascii 1.0
element vertex 903
property float x
property float y
property float z
property uchar red
property uchar green
property uchar blue
property float weight
end_header
-0.15726912 -0.6942604 0.32090008 0 112 255 0.2382219
-0.20707406 0.5358885 0.080237806 128 0 0 1.0
-0.12576424 0.5868603 0.007173714 142 255 114 0.51633817
-0.2055766 0.14623922 0.32090008 128 0 0 1.0
-0.17868076 0.6809859 0.095562406 255 248 0 0.63425267
-0.20512931 0.18132244 -0.30289656 0 88 255 0.21411876
-0.14808992 0.34022757 0.12942043 255 24 0 0.852358
-0.20707406 0.69109863 -0.12450501 0 44 255 0.17186096
0.3755912 -0.32565334 -0.30289656 128 0 0 1.0
-0.12576424 0.7810237 0.086363755 255 216 0 0.6659433
0.4167226 -0.62518305 0.28875342 134 255 122 0.5091652
-0.12910919 -0.5534414 0.26102138 238 255 18 0.60956806
0.4075045 0.02725968 -0.13699028 168 0 0 0.96095276
0.3760385 -0.043140113 0.014680432 46 255 210 0.423018
0.03815839 0.02725968 0.14348094 228 0 0 0.9052103
0.19150157 -0.043140113 -0.074233346 255 220 0 0.6588635
-0.12910919 -0.6719153 -0.23984787 128 0 0 1.0
0.076080926 -0.043140113 -0.29533148 255 180 0 0.7015442
-0.20707406 0.6239466 0.065243825 132 0 0 0.9961544
0.33875775 -0.23115812 -0.27743983 74 255 182 0.44917378
-0.17210752 0.35045695 0.32090008 255 28 0 0.8496743
0.383623 -0.83140385 0.32090008 0 44 255 0.16914128
-0.18719874 0.34022757 -0.08168171 255 0 0 0.8777669
-0.20707406 0.5385528 -0.1616302 128 0 0 1.0
0.40157303 0.02725968 0.054314345 255 184 0 0.69604135
-0.15526602 -0.043140113 -0.23341078 204 0 0 0.9258747
0.4167226 0.0034754386 -0.0826152 255 108 0 0.7704507
-0.17525803 0.41443908 -0.06896308 172 0 0 0.95961493
-0.20707406 -0.76767457 -0.252022 128 0 0 1.0
0.33875775 -0.76464075 0.316116 58 255 198 0.4350025
0.39056572 -0.33668002 0.24293524 188 0 0 0.9444294
-0.20707406 -0.48883694 0.286128 255 200 0 0.68137044
-0.19353862 -0.37806424 0.32090008 255 44 0 0.8335026
0.4167226 -0.5631845 -0.23446093 0 104 255 0.22804192
0.048290513 -0.043140113 0.18445674 220 0 0 0.9110851
-0.20707406 0.34009147 -0.20352003 128 0 0 1.0
-0.20707406 0.5582142 -0.29052797 156 0 0 0.974485
-0.20707406 -0.38870198 -0.2909558 128 0 0 1.0
-0.12576424 0.12292171 0.23972641 128 0 0 1.0
-0.12576424 0.043965045 0.21539763 184 0 0 0.9471024
-0.12576424 0.065921225 -0.1910931 0 124 255 0.24822766
-0.15516879 -0.55433595 -0.22493169 200 0 0 0.92972
0.08992752 0.02725968 -0.13214786 156 0 0 0.9760773
-0.12576424 0.38246748 -0.025653595 200 0 0 0.93100345
0.36141402 -0.44893077 -0.22493169 172 0 0 0.9576687
-0.10124098 0.02725968 0.21893708 255 16 0 0.86198163
-0.20707406 0.6016209 -0.2783344 146 255 110 0.51785433
-0.12693107 0.17303781 0.08696663 208 0 0 0.92235357
0.14202726 0.012712982 -0.30289656 255 20 0 0.85715866
-0.20707406 0.06613515 -0.08506557 128 0 0 1.0
-0.20707406 -0.39733666 0.320375 128 0 0 1.0
-0.12576424 0.64331627 -0.062292606 138 255 118 0.51005745
-0.12910919 -0.78922236 -0.22572903 192 0 0 0.9393525
-0.12910919 -0.24689114 -0.24416523 128 0 0 1.0
0.41335815 0.02725968 0.0489663 198 255 58 0.57077354
-0.12910919 -0.12902008 -0.28564665 168 0 0 0.96152914
-0.17502466 0.28886685 -0.043778624 168 0 0 0.9614807
-0.20707406 0.31414855 -0.2791123 132 0 0 0.9989192
-0.20707406 0.3815729 -0.2622708 228 0 0 0.9054637
0.09934009 -0.043140113 -0.12405772 150 255 106 0.5225463
0.4167226 -0.34657878 -0.23936169 255 36 0 0.84193027
-0.12576424 0.2205285 -0.06063957 0 0 224 0.095223896
0.41442776 0.02725968 0.18486513 158 255 98 0.5301236
-0.16246158 0.4445632 -0.2147801 212 0 0 0.92031604
0.31102565 0.02725968 -0.25838134 0 0 128 0.0
0.10972503 0.02725968 0.04877182 142 255 114 0.5175623
-0.12910919 -0.48862302 0.27696827 210 255 46 0.58212125
0.33875775 -0.08394087 -0.2439902 10 255 246 0.3873562
0.37409374 -0.4832944 0.24293524 146 255 110 0.5184921
0.4167226 -0.020814434 -0.08780767 255 52 0 0.8254788
0.4167226 -0.091622636 -0.30178806 140 0 0 0.9898616
-0.16965714 0.84543365 0.12928429 255 200 0 0.68154603
-0.20707406 -0.007804086 0.21687564 0 0 236 0.10886581
-0.12576424 0.5662071 -0.107294016 188 0 0 0.9446381
-0.12576424 0.6529816 -0.29996 255 12 0 0.8666229
-0.14750649 0.78709126 -0.2408397 0 0 228 0.10195124
-0.19519164 0.31644335 -0.03570793 255 192 0 0.6898679
0.26369053 -0.043140113 0.14357819 255 188 0 0.6902145
-0.12576424 0.3095006 0.1687432 255 0 0 0.8758768
-0.20707406 0.7311604 -0.15558204 192 0 0 0.9390165
-0.19489995 -0.53179634 0.32090008 255 60 0 0.819607
-0.17440233 0.3110175 0.32090008 255 140 0 0.7389643
0.3902157 -0.24226262 -0.30289656 192 0 0 0.93971515
-0.20707406 0.78827757 0.21043853 192 0 0 0.9375857
-0.12576424 0.5880855 -0.028667951 0 0 128 0.0
0.39445522 -0.043140113 0.11224832 255 132 0 0.7478151
-0.19777817 -0.043140113 0.22097905 128 0 0 1.0
-0.13789944 -0.043140113 0.31728286 0 124 255 0.24994047
0.38574275 -0.26927516 0.24293524 255 52 0 0.8264094
-0.16674003 -0.5423952 0.32090008 128 0 0 1.0
-0.14227511 0.43351704 0.24293524 206 255 50 0.5781281
0.33875775 -0.34266984 -0.26106507 255 92 0 0.78801143
0.25025234 -0.043140113 -0.10641888 128 0 0 1.0
-0.12576424 0.6574156 -0.25606707 255 224 0 0.65619075
0.38303956 -0.19026011 -0.22493169 86 255 170 0.4612347
-0.16454247 0.02725968 -0.15925762 46 255 210 0.42277843
0.4167226 -0.8033218 0.2885395 58 255 198 0.4349507
-0.12613371 0.23591144 0.101688355 255 36 0 0.8392435
0.3902157 -0.24226262 -0.30289656 168 0 0 0.96466017
0.4167226 -0.4406656 -0.27166393 0 248 255 0.37143806
0.3680845 -0.16396716 -0.22493169 255 72 0 0.807444
0.40030894 -0.1663203 -0.30289656 128 0 0 1.0
-0.20707406 0.25605902 -0.053716272 242 255 14 0.61363024
-0.20707406 0.7692969 -0.1692536 128 0 0 1.0
0.4025065 -0.026181933 -0.30289656 0 0 188 0.062292445
-0.12910919 -0.32401973 0.27368164 178 255 78 0.5506336
0.33875775 -0.5925891 -0.2863662 255 180 0 0.70087826
-0.14968461 0.02725968 0.2942765 42 255 214 0.41905043
-0.15195994 0.18964595 0.08696663 255 132 0 0.74705803
-0.15629673 -0.071572304 0.32090008 128 0 0 1.0
-0.17871965 -0.14173871 -0.22493169 255 216 0 0.6634215
-0.20707406 0.073602974 -0.058169745 200 0 0 0.9318897
0.037263803 -0.025481826 0.32090008 158 255 98 0.5303461
-0.19102989 0.02725968 -0.028006734 128 0 0 1.0
-0.12590034 0.43598688 -0.06896308 38 255 218 0.41428933
0.14523609 0.02725968 -0.21921413 255 68 0 0.8098349
0.14653906 0.02725968 0.31920815 34 255 222 0.41031623
-0.12576424 0.6198237 0.1511238 0 0 192 0.06615391
0.18304195 -0.043140113 0.038464673 255 180 0 0.70143133
-0.20707406 0.7758895 -0.21884462 196 0 0 0.93618184
0.03739994 -0.043140113 0.12098023 255 240 0 0.6413687
-0.20707406 -0.8270282 -0.2631265 248 0 0 0.88569206
-0.20707406 0.5749001 0.11763527 136 0 0 0.9929756
-0.12728114 0.7044785 0.10328305 122 255 134 0.49527013
-0.013377373 -0.043140113 -0.2948453 0 0 128 0.0
0.4167226 -0.30548632 -0.2542779 202 255 54 0.5753174
-0.12576424 0.6576101 0.18642092 255 172 0 0.706542
-0.1488678 0.635051 -0.30289656 128 0 0 1.0
0.0667656 0.02725968 -0.0069451397 236 0 0 0.8946622
0.36349487 -0.83469045 0.24293524 98 255 158 0.4710106
-0.18731545 0.1315953 0.22943869 0 96 255 0.22304015
-0.16955991 0.18744838 0.24293524 255 168 0 0.71026266
-5.5864206e-05 -0.009573804 0.32090008 128 0 0 1.0
0.40308988 -0.68167794 0.32090008 188 0 0 0.94125843
-0.20707406 0.8560714 0.07434522 198 255 58 0.57193625
0.3514569 -0.83770484 0.32090008 255 224 0 0.6560768
-0.16152811 -0.44049054 -0.22493169 128 0 0 1.0
-0.20141485 -0.11867403 0.24293524 128 0 0 1.0
-0.12576424 0.48590848 -0.19929993 248 0 0 0.8835944
0.15744908 -0.043140113 -0.27864558 252 0 0 0.8796241
-0.20707406 0.35364634 -0.00999839 255 124 0 0.7560671
0.33875775 -0.22404034 -0.23978953 156 0 0 0.972604
0.38138655 -0.08619678 -0.22493169 58 255 198 0.43178496
-0.12576424 0.57666975 -0.0067895604 255 28 0 0.8504695
-0.18710153 -0.043140113 0.14089443 102 255 154 0.47729868
-0.20707406 -0.65820485 -0.23131044 166 255 90 0.54086185
-0.17518021 -0.40507674 -0.30289656 0 56 255 0.1839162
0.040958825 -0.043140113 0.20643237 128 0 0 1.0
-0.12576424 0.09771781 -0.13691248 188 0 0 0.9442853
0.3605389 -0.062626466 0.24293524 30 255 226 0.40447348
-0.20707406 -0.03818101 0.30314457 255 244 0 0.6362953
-0.18225911 0.65560704 -0.047045797 255 232 0 0.6508162
-0.20707406 0.8560714 0.07434522 255 36 0 0.84267265
0.03815839 0.02725968 0.14348094 158 255 98 0.529454
-0.10942836 0.02725968 -0.23529716 255 204 0 0.6745384
-0.19999516 0.34022757 -0.17411546 255 44 0 0.8327931
-0.12576424 0.044490125 0.077320695 255 64 0 0.81313276
-0.20135652 0.13879085 0.24293524 134 255 122 0.50764245
-0.20707406 -0.28061303 0.24365479 128 0 0 1.0
-0.20707406 0.02372024 0.2919039 196 0 0 0.9347315
0.40308988 -0.68167794 0.32090008 190 255 66 0.56315434
0.37543562 -0.79425925 0.24293524 255 160 0 0.7202852
0.35894418 -0.74783814 -0.22493169 0 124 255 0.24938469
-0.20707406 0.5259897 0.28692538 255 192 0 0.6866965
-0.20691848 -0.08880275 0.24293524 255 148 0 0.73119897
-0.12910919 -0.20595421 0.28465 0 240 255 0.364093
0.38171715 -0.043140113 -0.20643714 0 0 128 0.0
0.076080926 -0.043140113 -0.29533148 252 0 0 0.88034844
0.3852177 -0.30019662 0.24293524 255 36 0 0.8410923
-0.12576424 0.15450439 0.27535415 98 255 158 0.47388366
-0.17782506 0.5032362 0.32090008 148 0 0 0.98419183
0.36748162 -0.8712906 -0.23138823 156 0 0 0.97465867
0.4167226 0.0034754386 -0.0826152 26 255 230 0.4015247
0.3757468 0.02725968 0.06049864 220 0 0 0.91142017
0.10375466 0.02725968 -0.20443407 220 0 0 0.91001844
-0.20707406 0.086379945 -0.2905474 0 184 255 0.30847037
-0.13739382 0.84854525 -0.099787295 196 0 0 0.93477637
0.4167226 -0.5151687 -0.29774296 0 252 255 0.3734282
-0.20707406 0.5316878 -0.27712867 255 212 0 0.67015743
0.3580107 -0.25638148 -0.30289656 255 248 0 0.6350842
0.33875775 -0.5925891 -0.2863662 255 20 0 0.8561551
-0.12576424 0.6306754 0.068083145 240 0 0 0.8903991
-0.067363515 -0.004089622 0.32090008 200 0 0 0.9319319
-0.20707406 0.5058033 -0.19395187 128 0 0 1.0
-0.109486714 -0.043140113 0.0058123926 0 0 172 0.045922376
0.17954141 0.02725968 -0.27580625 128 0 0 1.0
-0.20707406 0.68676186 -0.29350343 255 36 0 0.8397486
0.33875775 -0.5193694 -0.2765647 0 112 255 0.2379846
0.24607114 0.02725968 -0.09875659 176 0 0 0.95440894
0.41506955 0.02725968 0.17257434 132 0 0 0.9986594
-0.17728055 -0.75769806 -0.22493169 176 0 0 0.9552566
-0.12576424 0.10203515 0.2937903 128 0 0 1.0
0.074525125 0.02725968 -0.14311624 255 140 0 0.73770636
0.15678787 0.02725968 0.099996425 22 255 234 0.39822719
-0.18295921 0.02725968 -0.2647212 255 72 0 0.8046488
-0.12576424 0.8023575 0.15254347 128 0 0 1.0
0.37380204 -0.7361697 -0.22493169 184 0 0 0.9456264
-0.14725368 0.111389376 0.32090008 228 0 0 0.9040102
0.4167226 -0.85752183 -0.28249618 102 255 154 0.4760441
-0.20707406 0.8054108 0.08881413 128 0 0 1.0
-0.20707406 0.5372693 0.09276197 38 255 218 0.41471595
-0.19746701 -0.23633114 -0.22493169 238 255 18 0.6105037
-0.0709224 -0.009593252 -0.30289656 128 0 0 1.0
0.4167226 -0.016147045 -0.13992685 192 0 0 0.93795544
0.33875775 -0.7201839 -0.27845109 255 160 0 0.7205059
-0.14725368 0.111389376 0.32090008 148 0 0 0.98268884
-0.190991 0.44631347 0.32090008 186 255 70 0.5606589
0.28282684 0.02725968 -0.08368481 255 252 0 0.6275198
-0.12910919 -0.62028223 -0.25186643 128 0 0 1.0
0.050390836 -0.043140113 -0.18294463 0 0 204 0.07756539
0.33875775 -0.50455046 0.3070924 210 255 46 0.58311445
-0.12685329 -0.043140113 -0.20268379 255 176 0 0.7040139
0.33875775 -0.120657675 0.29723254 255 152 0 0.7258806
-0.091789514 0.02725968 -0.28097928 255 172 0 0.7076484
-0.14229456 -0.21145785 0.32090008 128 0 0 1.0
0.34050798 -0.41987625 -0.30289656 255 156 0 0.7233009
-0.20707406 -0.41773707 0.2861669 224 0 0 0.9059472
0.36454505 -0.44671378 0.24293524 255 188 0 0.692929
0.3755912 -0.32565334 -0.30289656 232 0 0 0.8998746
0.2989488 -0.043140113 0.10532503 255 140 0 0.740481
0.18395597 0.02725968 -0.04027808 128 0 0 1.0
-0.20707406 0.82273847 -0.12009045 226 255 30 0.5991378
-0.06234607 0.02725968 -0.19562435 128 0 0 1.0
-0.16069186 -0.18942389 -0.22493169 232 0 0 0.89811856
-0.17306046 0.02725968 -0.003755757 255 188 0 0.69087523
0.024914669 0.02725968 0.3082009 118 255 138 0.49155965
-0.20707406 0.28030998 -0.15373453 0 0 128 0.0
-0.19900335 0.7965622 0.063124046 244 0 0 0.88727194
-0.11829641 0.02725968 0.29289573 250 255 6 0.6198067
-0.17306046 0.02725968 -0.003755757 0 80 255 0.20593178
-0.12910919 -0.65128154 0.32002497 130 255 126 0.50583094
-0.20707406 -0.43290606 0.30230832 255 180 0 0.7017893
-0.09653471 0.02725968 -0.04885441 255 8 0 0.8690868
0.30980048 -0.021942388 0.32090008 128 0 0 1.0
0.4167226 -0.7153803 0.2796715 152 0 0 0.9771524
0.05877269 -0.043140113 0.06469929 144 0 0 0.98769933
-0.048207767 -0.043140113 -0.09451704 210 255 46 0.58257806
-0.16934599 0.34022757 0.12759237 255 240 0 0.64299536
0.33875775 -0.7198338 -0.3025076 156 0 0 0.972551
-0.16215043 0.1315953 -0.17100388 152 0 0 0.97855014
-0.15701628 -0.79785705 -0.22493169 255 148 0 0.73023385
0.38171715 -0.16241138 -0.30289656 230 255 26 0.60167557
-0.12576424 0.053144246 -0.21769723 0 0 128 0.0
-0.20707406 -0.015660858 0.023276208 224 0 0 0.9083949
-0.20707406 -0.015660858 0.023276208 186 255 70 0.55806947
0.17298761 -0.043140113 0.30662566 255 24 0 0.853451
-0.12576424 0.030643536 0.31924704 128 0 0 1.0
-0.20707406 0.26747465 0.07065021 255 128 0 0.7508963
-0.1346517 -0.11492068 0.24293524 250 255 6 0.62232053
-0.20707406 -0.11424002 -0.25840077 0 108 255 0.23470755
-0.16113915 0.02725968 -0.20892642 255 8 0 0.8692821
0.14653906 0.02725968 0.31920815 184 0 0 0.94595444
0.34614775 0.02725968 -0.038274996 168 0 0 0.9641471
-0.20707406 0.5446982 -0.12238524 204 0 0 0.9288042
0.07895916 0.02725968 -0.2995905 174 255 82 0.54867655
-0.05495604 -0.043140113 -0.17757712 255 180 0 0.7019378
0.17271535 -0.043140113 0.278738 162 255 94 0.5365808
0.39077964 0.02725968 -0.26186243 0 0 128 0.0
-0.19330525 0.123427354 0.32090008 0 0 128 0.0
0.34712014 -0.67718554 0.32090008 255 224 0 0.6563264
-0.14915954 -0.13563222 -0.22493169 128 0 0 1.0
0.33875775 -0.34266984 -0.26106507 255 20 0 0.85573775
0.21380782 -0.043140113 0.029266026 164 0 0 0.96752983
0.37946126 -0.74239284 0.32090008 156 0 0 0.97279024
-0.20707406 0.09902079 -0.29354233 0 0 128 0.0
-0.20707406 -0.38870198 -0.2909558 255 60 0 0.81750077
-0.11650724 -0.043140113 0.1231389 192 0 0 0.93874913
0.2939119 -0.043140113 -0.29274496 66 255 190 0.4419471
-0.17973092 -0.23187768 -0.30289656 128 0 0 1.0
-0.091789514 0.02725968 -0.28097928 150 255 106 0.52294147
-0.022167629 0.02725968 -0.040492002 255 132 0 0.7474662
-0.20707406 0.10030433 -0.155232 128 0 0 1.0
-0.1448033 0.23591144 0.006959792 128 0 0 1.0
-0.1860708 0.23591144 -0.08903285 255 228 0 0.652395
-0.16454247 0.02725968 -0.15925762 255 196 0 0.6841842
0.4167226 -0.5705746 0.29622126 255 64 0 0.8155735
-0.18332869 0.23344162 0.08696663 0 208 255 0.33329043
0.34900653 -0.043140113 0.09542628 255 4 0 0.8739439
-0.20123981 0.60029846 -0.30289656 128 0 0 1.0
-0.13076223 0.8165736 -0.18800096 0 192 255 0.3172368
-0.12576424 0.030643536 -0.2892444 255 52 0 0.82444036
0.28959453 -0.043140113 -0.27325863 0 0 244 0.115851216
0.19255175 -0.043140113 -0.24422356 168 0 0 0.96397793
0.3622308 -0.39327213 -0.30289656 0 0 128 0.0
-0.11650724 -0.043140113 0.1231389 182 255 74 0.55494267
-0.12576424 0.5102762 -0.26861066 0 192 255 0.31551233
-0.12576424 0.37840295 -0.26147348 255 244 0 0.6380165
-0.15240724 0.24612133 0.04062334 132 0 0 0.9970999
-0.12576424 0.044490125 0.077320695 168 0 0 0.96221536
-0.20707406 0.3815729 -0.2622708 128 0 0 1.0
-0.1356241 -0.4064964 0.24293524 26 255 230 0.40105873
0.38451758 -0.5915778 -0.30289656 98 255 158 0.47264653
0.38338965 -0.3898883 0.32090008 184 0 0 0.9472191
-0.16327837 -0.043140113 -0.1800664 0 240 255 0.3609387
-0.12483073 -0.043140113 0.00567626 255 188 0 0.69030267
-0.03333046 -0.012238107 -0.30289656 184 0 0 0.9478927
0.33875775 -0.8499179 0.2645608 228 0 0 0.90509474
0.35102907 -0.5387002 0.32090008 0 0 128 0.00290401
-0.19478327 0.02725968 -0.011651424 128 0 0 1.0
-0.13126786 0.7073567 -0.30289656 246 255 10 0.6178508
0.3194075 -0.043140113 0.13937752 214 255 42 0.58588636
-0.19645573 0.02725968 0.2773961 255 124 0 0.75340235
0.33875775 -0.5255342 -0.2396534 255 224 0 0.6555245
-0.20707406 0.47859624 0.10293299 224 0 0 0.9071353
-0.13970807 -0.87033767 -0.30289656 255 160 0 0.71898043
-0.20707406 0.2537253 -0.083626464 255 236 0 0.64577615
-0.1555383 0.1074221 -0.30289656 0 128 255 0.25156456
-0.12910919 -0.4139642 -0.22948238 128 0 0 1.0
-0.20707406 0.5544608 -0.08107884 50 255 206 0.42543486
-0.12576424 0.26039577 0.12008564 128 0 0 1.0
-0.20707406 -0.7692498 -0.26901907 136 0 0 0.9956233
-0.12576424 0.057811633 0.1569386 128 0 0 1.0
-0.07269211 0.02725968 -0.07106341 136 0 0 0.9940884
-0.12910919 -0.26075718 0.2568985 255 224 0 0.65502167
0.4167226 -0.73521674 0.2952489 132 0 0 0.997333
-0.17113516 -0.40188736 0.32090008 0 0 128 0.0
0.19235727 -0.043140113 -0.2980736 255 96 0 0.7804412
-0.20707406 0.68676186 -0.29350343 255 244 0 0.6379304
-0.20141485 -0.11867403 0.24293524 128 0 0 1.0
0.26761892 -0.043140113 0.034127887 128 0 0 1.0
-0.20227054 0.087177284 0.32090008 226 255 30 0.5965771
-0.12910919 -0.22190113 -0.26872736 255 48 0 0.8294734
-0.20178433 -0.72629035 0.32090008 0 160 255 0.2831115
-0.20707406 0.45072806 -0.12460225 188 0 0 0.941386
-0.18389268 0.5444065 -0.30289656 0 180 255 0.302422
0.33875775 -0.3200719 0.25969893 156 0 0 0.9735711
-0.019328298 -0.043140113 0.24511333 255 48 0 0.8292323
-0.12720333 -0.043140113 0.19686422 160 0 0 0.9710387
-0.16353118 -0.8712906 0.26294664 244 0 0 0.8882889
0.3194075 -0.043140113 0.13937752 128 0 0 1.0
-0.12982874 0.02725968 0.056998096 0 72 255 0.19669317
-0.08369938 0.02725968 0.15544114 0 28 255 0.15543662
-0.20707406 0.58546 -0.112894885 0 236 255 0.35737726
-0.20707406 0.18001945 0.30629504 255 4 0 0.8722275
-0.20707406 0.46068513 0.043307092 255 180 0 0.69960517
-0.15166825 0.23591144 -0.12969747 0 120 255 0.24593443
-0.12576424 0.69650507 -0.08175951 228 0 0 0.9038211
-0.20707406 0.34930956 0.27335104 128 0 0 1.0
0.40240923 -0.5682214 -0.22493169 200 0 0 0.9305675
-0.12576424 0.13513473 -0.058364216 255 136 0 0.74504524
0.4167226 0.008026144 -0.16411948 255 52 0 0.8260578
0.33875775 -0.18020579 0.26551372 220 0 0 0.91050655
0.14945617 -0.043140113 -0.13508442 255 4 0 0.8712186
0.04794046 0.02725968 0.2885006 255 224 0 0.6587539
-0.19703917 0.02725968 -0.12578854 184 0 0 0.9484475
-0.029343734 -0.03777262 0.32090008 255 196 0 0.6857713
0.37529948 -0.72210914 -0.22493169 128 0 0 1.0
-0.20707406 0.0993514 -0.014296278 128 0 0 1.0
0.27959856 -0.043140113 0.10252459 236 0 0 0.8970821
-0.12576424 0.5230726 -0.08033984 255 160 0 0.72108036
-0.20707406 0.63298965 -0.28113484 255 4 0 0.872114
-0.13068442 0.34022757 0.096223615 128 0 0 1.0
0.4167226 -0.041584317 -0.27409485 128 0 0 1.0
0.14189112 0.02725968 0.07854588 184 0 0 0.94728005
-0.12576424 0.7443458 0.13712163 208 0 0 0.9244368
-0.089203015 0.02725968 -0.021491837 160 0 0 0.97077847
-0.18830726 0.23591144 0.15386589 255 180 0 0.6980512
-0.17055172 0.4445632 0.22982766 128 0 0 1.0
-0.029499307 0.02725968 -0.13607626 255 12 0 0.865532
-0.20707406 0.08972491 0.0826493 255 84 0 0.79239666
0.2687663 -0.043140113 -0.2508357 182 255 74 0.5540144
0.3757468 0.02725968 0.06049864 255 228 0 0.65460443
-0.1724187 0.02725968 -0.04749309 255 24 0 0.8529909
0.3481314 -0.118226744 -0.22493169 200 0 0 0.9299962
-0.19184668 -0.3263729 -0.30289656 0 128 255 0.25118437
-0.1356241 -0.4064964 0.24293524 180 0 0 0.94979554
-0.20707406 0.045501392 -0.13294521 122 255 134 0.4971591
0.074525125 0.02725968 -0.14311624 82 255 174 0.45613173
-0.12576424 0.39720863 0.06886105 0 224 255 0.3482253
0.33875775 -0.20583753 0.24698031 255 240 0 0.64174825
-0.19900335 0.7965622 0.063124046 255 20 0 0.8586794
0.33875775 -0.35815004 -0.23774756 54 255 202 0.430865
-0.12910919 -0.70299226 0.29884666 128 0 0 1.0
-0.12576424 0.62591076 0.1892797 204 0 0 0.9282668
0.39733344 -0.8498011 -0.22493169 128 0 0 1.0
0.28992516 -0.043140113 -0.1801053 255 8 0 0.86945933
-0.12576424 0.5765337 -0.033607606 14 255 242 0.3900833
-0.17331327 0.14577249 -0.30289656 255 184 0 0.6961043
0.40030894 -0.1663203 -0.30289656 110 255 146 0.48552784
-0.18620692 -0.30472785 -0.22493169 255 116 0 0.76421267
0.4167226 -0.35929742 0.27002555 0 0 248 0.11785503
-0.13745214 0.40926605 0.32090008 128 0 0 1.0
0.2931729 -0.043140113 0.08646099 186 255 70 0.5593021
-0.20707406 -0.25002217 -0.22701254 128 0 0 1.0
0.358633 -0.12542231 0.24293524 255 92 0 0.7845005
-0.20707406 0.5956699 -0.03218794 128 0 0 1.0
-0.20707406 0.28787506 0.08546917 144 0 0 0.98608315
0.016085522 -0.043140113 -0.13117549 224 0 0 0.9096773
-0.12576424 0.5131155 -0.029601429 144 0 0 0.9870197
-0.12576424 0.2980655 -0.28150433 255 160 0 0.7188194
-0.20489594 -0.66641164 0.24293524 182 255 74 0.55498177
-0.12576424 0.7424399 0.30551714 166 255 90 0.5405851
-0.20707406 -0.7335637 -0.23099929 152 0 0 0.9784106
0.4167226 0.0065870318 -0.11804846 255 148 0 0.7301186
0.13315922 -0.043140113 -0.032790814 128 0 0 1.0
0.4167226 -0.46800873 -0.26479897 238 255 18 0.60853916
-0.16450357 -0.5264872 -0.30289656 0 0 252 0.122439146
0.4167226 -0.8033218 0.2885395 152 0 0 0.9783618
-0.20707406 0.5707383 0.2601657 255 56 0 0.822091
-0.12576424 0.6505896 -0.22082826 128 0 0 1.0
-0.18159787 0.4445632 0.09672925 255 236 0 0.6431912
0.36942637 -0.043140113 -0.22578736 128 0 0 1.0
-0.15339907 0.4445632 0.1200662 156 0 0 0.97276765
-0.12576424 0.80719995 -0.1192542 156 0 0 0.97361636
0.33885497 0.02725968 -0.29171428 238 255 18 0.60852563
0.105485484 -0.04216774 0.32090008 255 124 0 0.7559441
-0.19956732 -0.6508731 -0.30289656 192 0 0 0.94099414
-0.19596955 -0.36513168 0.24293524 50 255 206 0.42597413
0.05877269 -0.043140113 0.06469929 255 0 0 0.87744457
0.36219192 -0.043140113 0.21605887 128 0 0 1.0
-0.20707406 0.67211795 0.11497097 38 255 218 0.41487837
-0.20512931 0.18132244 -0.30289656 192 0 0 0.9407829
-0.12576424 0.67204016 -0.19251277 160 0 0 0.9701596
-0.18605135 0.8558769 -0.06093128 234 255 22 0.6070687
-0.10668627 -0.00486752 0.32090008 0 12 255 0.14026345
-0.12910919 -0.48453906 -0.24085915 128 0 0 1.0
-0.09066156 -0.043140113 -0.11013335 255 60 0 0.81627244
-0.18552625 0.25063315 -0.30289656 0 0 180 0.054558888
-0.17339106 -0.3914052 0.24293524 144 0 0 0.98472095
0.4167226 -0.3487569 -0.25573647 0 0 200 0.07189902
0.28282684 0.02725968 -0.08368481 0 0 128 0.0
0.13312031 0.02725968 0.08480796 252 0 0 0.8807611
-0.12576424 0.3095006 0.1687432 192 0 0 0.9409946
-0.05050257 -0.043140113 -0.116764925 0 192 255 0.3166762
0.36683986 -0.56641287 0.24293524 236 0 0 0.89455444
0.33875775 -0.14710622 -0.22611797 0 0 200 0.07233899
-0.14408375 -0.6815223 -0.30289656 255 216 0 0.66359264
-0.15602449 -0.57880086 -0.22493169 255 0 0 0.8747105
-0.12660047 0.6451638 0.063688025 0 0 128 0.0
-0.19925617 -0.3767807 -0.30289656 255 248 0 0.6342574
-0.040934425 -0.043140113 -0.20563981 114 255 142 0.4886219
0.39056572 -0.33668002 0.24293524 0 0 128 0.0
0.36271697 -0.13751863 -0.30289656 255 124 0 0.7556459
0.3603444 0.02725968 0.22234039 255 132 0 0.745436
-0.13924131 0.7934506 -0.03800273 128 0 0 1.0
-0.12910919 -0.29595706 0.2666611 212 0 0 0.9198591
-0.12576424 0.26694956 -0.06342056 255 68 0 0.8101913
0.3279255 -0.043140113 -0.09428367 255 104 0 0.7739837
-0.20178433 -0.72629035 0.32090008 255 192 0 0.6888888
0.39696398 -0.31414044 -0.30289656 128 0 0 1.0
-0.12576424 0.6250745 -0.27720648 255 160 0 0.7207711
-0.1893963 0.23591144 -0.16666709 255 160 0 0.718894
0.37380204 -0.7361697 -0.22493169 0 232 255 0.356335
-0.20707406 0.19684151 -0.24282335 0 0 128 0.0
-0.12910919 -0.71329945 0.3009859 128 0 0 1.0
-0.20707406 0.059620246 0.2982049 0 120 255 0.24421583
-0.18951301 0.81108946 0.013066294 132 0 0 0.99613297
-0.14989853 -0.43500638 0.32090008 255 12 0 0.86589897
-0.18089777 -0.6912461 0.24293524 255 60 0 0.81668615
-0.12576424 0.6887455 -0.099826194 136 0 0 0.9959939
0.08831338 0.02725968 0.06989176 130 255 126 0.50401855
0.14945617 -0.043140113 -0.13508442 255 156 0 0.72470564
0.27959856 -0.043140113 0.10252459 255 60 0 0.81729484
-0.16082801 -0.2297579 0.32090008 128 0 0 1.0
0.41617805 -0.69630235 0.32090008 128 0 0 1.0
-0.15641344 -0.043140113 -0.25184697 255 224 0 0.65688
-0.17237978 0.56416506 -0.30289656 0 80 255 0.20402558
-0.16979328 -0.8118981 0.32090008 166 255 90 0.5398767
-0.09400654 -0.017313892 -0.30289656 255 220 0 0.6591854
-0.12576424 0.5039557 0.08280487 255 224 0 0.65624756
-0.16312279 0.1315953 0.17232153 220 0 0 0.909826
-0.20707406 0.70303935 0.18445674 255 184 0 0.69448316
0.3393606 -0.1032911 -0.30289656 255 128 0 0.75114024
-0.20707406 0.22410685 -0.24010068 0 0 128 0.0
0.4167226 -0.6609469 0.30962056 255 36 0 0.8409415
-0.20707406 0.364323 0.06386305 0 120 255 0.2445019
0.1806499 -0.014182852 -0.30289656 78 255 178 0.4521614
0.32286915 0.02725968 -0.23204944 224 0 0 0.9086164
0.16925369 -0.02690149 -0.30289656 46 255 210 0.42278785
-0.19322744 -0.6887179 0.24293524 232 0 0 0.90142584
0.36036384 -0.043140113 0.2394736 14 255 242 0.39011818
-0.20707406 -0.31845778 -0.2798124 220 0 0 0.9119667
0.3603444 0.02725968 0.22234039 255 120 0 0.7605399
0.33875775 -0.56192046 -0.24978556 255 40 0 0.8353376
-0.20707406 -0.0053537064 -0.016766105 158 255 98 0.5298593
-0.20707406 0.7438401 -0.22220904 128 0 0 1.0
-0.12576424 0.5286151 0.22735782 128 0 0 1.0
0.11347839 0.02725968 -0.20013617 128 0 0 1.0
0.4167226 -0.62518305 0.28875342 144 0 0 0.9846845
-0.20707406 -0.13613784 0.2627911 255 48 0 0.82817394
-0.05050257 -0.043140113 -0.116764925 200 0 0 0.9299956
-0.20707406 0.6068328 -0.26254308 128 0 0 1.0
-0.12910919 -0.36106715 -0.25058287 128 0 0 1.0
-0.20707406 0.46068513 0.043307092 128 0 0 1.0
0.37605792 0.02725968 0.30987337 255 36 0 0.8400965
0.33875775 -0.73568344 -0.27300578 0 0 152 0.025626335
0.11081409 -0.043140113 0.023120627 226 255 30 0.5998427
0.30110747 -0.043140113 -0.1491644 128 0 0 1.0
-0.20707406 0.7822683 -0.18203059 255 52 0 0.82542026
0.33875775 -0.6493562 0.3095233 224 0 0 0.9074118
-0.16281164 0.23591144 0.0054039955 128 0 0 1.0
-0.20707406 0.22766572 0.020067379 178 255 78 0.55063844
0.3501345 -0.5699134 -0.22493169 196 0 0 0.9337999
0.32444438 -0.043140113 0.07045574 255 84 0 0.7934066
0.40721276 -0.28071025 0.24293524 0 0 128 0.0
-0.1462424 0.7031172 0.32090008 0 0 128 0.0
-0.20707406 -0.57547534 -0.26757997 255 48 0 0.8297076
-0.20707406 0.2537253 -0.083626464 172 0 0 0.95839626
-0.12173859 -0.025870774 0.32090008 128 0 0 1.0
-0.12576424 0.24497394 0.05643412 255 168 0 0.71062726
-0.12576424 0.075080976 -0.018963667 255 204 0 0.67528003
0.3461283 -0.043140113 -0.2597232 255 152 0 0.72883976
-0.20707406 -0.72669876 -0.29449522 0 0 128 0.0
-0.20707406 -0.49784106 -0.24478756 255 132 0 0.74548155
-0.13327095 0.58250403 -0.30289656 128 0 0 1.0
-0.12576424 0.24750213 0.28177178 0 76 255 0.2001419
-0.12910919 -0.7538279 -0.26903853 255 0 0 0.8773962
-0.19900335 0.7965622 0.063124046 255 44 0 0.8316601
-0.1898436 -0.043140113 0.0374923 126 255 130 0.50154126
0.40240923 -0.57168305 0.32090008 224 0 0 0.9064127
-0.16955991 0.18744838 0.24293524 128 0 0 1.0
-0.12576424 0.29841557 -0.12571076 82 255 174 0.4558661
-0.044843353 0.02725968 0.24032928 255 196 0 0.6840337
-0.16180037 -0.39963147 0.24293524 164 0 0 0.9651302
-0.18651809 0.34022757 -0.19428249 128 0 0 1.0
-0.20707406 0.23068008 0.2902898 128 0 0 1.0
-0.17868076 0.6809859 0.095562406 0 0 128 0.0
-0.20707406 0.35364634 -0.00999839 0 0 128 0.0
0.33875775 -0.8371992 -0.27248073 82 255 174 0.45880005
-0.12576424 0.44882217 -0.10132365 255 40 0 0.83610815
0.16271934 0.02725968 -0.2673077 204 0 0 0.9285291
0.4167226 -0.4406656 -0.27166393 0 0 128 0.0
0.36199743 -0.2932733 0.32090008 128 0 0 1.0
-0.1527573 0.02725968 0.114776485 118 255 138 0.49139997
-0.16113915 0.02725968 -0.20892642 255 180 0 0.7019184
-0.14204174 -0.043140113 0.0031091957 255 92 0 0.78580576
-0.20707406 0.32295823 -0.14270782 176 0 0 0.95447516
-0.20707406 0.68549776 -0.0683991 14 255 242 0.38911217
0.24089812 -0.043140113 -0.20081684 255 80 0 0.79723775
0.26532415 0.01975296 -0.30289656 255 12 0 0.865192
-0.19939232 -0.26009595 0.24293524 164 0 0 0.9661124
-0.12576424 0.758873 0.2901731 202 255 54 0.5755417
-0.20707406 0.45039743 -0.15776016 0 204 255 0.32732224
-0.15125984 0.0060036085 -0.30289656 255 160 0 0.71884656
-0.12576424 0.49747977 -0.25106907 190 255 66 0.5641737
0.36201686 0.02725968 -0.003794651 160 0 0 0.97102284
0.2554254 -0.043140113 -0.2509135 128 0 0 1.0
-0.12576424 0.23503631 -0.013732302 0 68 255 0.19312114
0.28959453 -0.043140113 -0.27325863 128 0 0 1.0
-0.12910919 -0.24689114 -0.24416523 148 0 0 0.9811303
0.4167226 0.008551225 0.2731177 255 108 0 0.77079433
-0.20707406 0.26276836 0.26971436 188 0 0 0.9426766
-0.20052026 -0.6105585 -0.30289656 196 0 0 0.9364209
-0.12576424 0.70687056 0.2133751 255 244 0 0.638547
-0.20707406 0.62172955 -0.17176233 128 0 0 1.0
0.37277132 -0.043140113 -0.08625187 0 16 255 0.14485854
0.2102295 -0.043140113 0.13601312 0 156 255 0.28004053
-0.20707406 0.68092763 -0.18648405 128 0 0 1.0
-0.12576424 0.34831774 0.30470034 255 128 0 0.74990726
-0.20707406 0.5007469 -0.10169315 0 200 255 0.32282865
-0.029343734 -0.03777262 0.32090008 0 0 128 0.0
-0.20707406 0.3044637 -0.06211758 86 255 170 0.46172404
-0.1658649 -0.46376917 -0.30289656 255 20 0 0.8564482
-0.20707406 0.02556775 0.11162601 102 255 154 0.47661355
0.05892827 -0.043140113 -0.0033473598 255 4 0 0.87092614
-0.13346542 0.02725968 0.08616928 164 0 0 0.96517503
-0.19756423 0.1315953 -0.104162976 180 0 0 0.9525083
-0.023801217 -0.043140113 0.06281289 255 212 0 0.66667354
-0.20707406 0.09841792 0.18896855 128 0 0 1.0
-0.13982475 -0.35770273 -0.30289656 182 255 74 0.555342
-0.13745214 0.40926605 0.32090008 255 8 0 0.8694937
-0.12576424 0.4892535 0.30625615 140 0 0 0.9889284
0.35944983 -0.81732386 0.32090008 0 252 255 0.37335953
0.30618325 0.02725968 -0.009337176 255 92 0 0.7846123
-0.20707406 -0.39274707 -0.27183896 196 0 0 0.93383306
0.18387818 0.02725968 0.02074804 176 0 0 0.95474166
-0.17728055 -0.75769806 -0.22493169 128 0 0 1.0
0.14945617 -0.043140113 -0.13508442 242 255 14 0.61182684
-0.20707406 -0.038569964 0.1785836 255 108 0 0.77174556
-0.20707406 0.364323 0.06386305 128 0 0 1.0
0.3955054 -0.17719142 -0.22493169 128 0 0 1.0
-0.19748646 0.21726133 -0.22493169 255 196 0 0.6840406
0.17954141 0.02725968 -0.27580625 255 236 0 0.6468205
-0.20707406 -0.0007057642 0.16994894 255 196 0 0.6836192
-0.12576424 0.5070479 -0.28724134 255 40 0 0.8383499
-0.12576424 0.62025154 0.10466381 0 244 255 0.3667974
-0.20707406 0.71966696 0.19474444 255 12 0 0.8664356
-0.20707406 0.5506686 -0.0025889096 0 0 176 0.050351508
0.3534211 -0.105138615 -0.22493169 208 0 0 0.9254744
-0.19925617 -0.07130003 -0.30289656 172 0 0 0.9599644
-0.12576424 0.758873 0.2901731 198 255 58 0.5707103
-0.20707406 -0.7072319 -0.26736605 0 148 255 0.27374482
0.3639616 -0.51532435 0.24293524 0 160 255 0.28295618
-0.20707406 0.2724143 0.22016227 255 24 0 0.8523116
-0.20707406 -0.19848639 0.26176035 240 0 0 0.89137363
0.26116237 0.02725968 -0.17265691 0 0 220 0.09107966
-0.15818316 -0.054322403 -0.30289656 0 0 128 0.0
-0.20141485 -0.11867403 0.24293524 136 0 0 0.9939237
-0.022945525 0.02725968 -0.23311906 255 76 0 0.8007804
-0.20707406 -0.0007057642 0.16994894 255 28 0 0.8495353
-0.19711694 0.1315953 -0.0867964 228 0 0 0.90374917
-0.15310737 0.51200706 0.32090008 240 0 0 0.89324814
-0.13821058 0.4445632 -0.18988736 0 100 255 0.22453588
0.36796778 -0.19943932 0.32090008 0 252 255 0.37432048
-0.12910919 -0.44753054 0.3061589 156 0 0 0.97624546
-0.11312338 0.02725968 0.2745568 255 216 0 0.6653017
-0.19102989 -0.4862504 -0.22493169 248 0 0 0.8829583
-0.20707406 -0.45015594 -0.26376826 220 0 0 0.911145
0.4167226 0.026131727 0.07874035 78 255 178 0.45411047
-0.119541034 0.02725968 -0.07617809 168 0 0 0.9624821
-0.13472952 -0.28926715 -0.22493169 255 172 0 0.70827496
-0.16425073 0.02725968 0.04995812 158 255 98 0.5306022
0.38858208 -0.8712906 0.2997607 0 0 188 0.06036993
-0.12576424 0.37639984 -0.2443986 248 0 0 0.8835372
0.32998693 -0.0118491575 0.32090008 255 224 0 0.6554071
-0.12576424 0.5102762 -0.26861066 250 255 6 0.62186855
-0.12576424 0.57136065 -0.26771608 180 0 0 0.9500035
-0.13782166 0.7424788 0.31776902 255 184 0 0.6963535
0.39077964 0.02725968 -0.26186243 255 84 0 0.79542875
-0.1782918 0.6089721 -0.30289656 144 0 0 0.98565996
-0.021642545 0.02725968 0.26436633 0 0 128 0.0
-0.20707406 0.7180334 0.24030983 206 255 50 0.579422
-0.20707406 -0.8061027 0.25938776 212 0 0 0.9211139
-0.12576424 0.79506475 -0.16227196 255 112 0 0.7673146
-0.18476781 0.34022757 0.13155966 178 255 78 0.5512927
-0.16858752 0.8100393 0.024715321 255 56 0 0.8226286
-0.16061407 -0.35620528 0.24293524 255 104 0 0.7739892
-0.15310737 0.51200706 0.32090008 148 0 0 0.9818487
-0.19227453 -0.80057967 -0.30289656 254 255 1 0.62399745
-0.13774385 -0.46211615 0.32090008 128 0 0 1.0
-0.20707406 -0.13613784 0.2627911 0 68 255 0.1935952
0.4167226 -0.07540345 -0.27465883 255 48 0 0.830041
-0.12910919 -0.68990415 -0.29688728 255 184 0 0.6943261
-0.12910919 -0.7114325 -0.23290513 22 255 234 0.39895058
-0.119541034 0.02725968 -0.07617809 244 0 0 0.89001614
-0.15269896 0.08626326 0.32090008 0 28 255 0.15398324
0.22712934 0.02725968 0.30680066 255 112 0 0.76664895
-0.1736633 0.7655435 0.28943408 255 88 0 0.7895561
-0.20707406 0.28787506 0.08546917 174 255 82 0.548458
-0.1890268 0.1315953 0.105869554 0 228 255 0.3513981
-0.12910919 -0.8398052 -0.28893328 252 0 0 0.87943643
0.18387818 0.02725968 0.02074804 164 0 0 0.96564054
-0.19079652 -0.86238366 0.32090008 152 0 0 0.97791684
-0.18006152 0.438904 0.24293524 255 80 0 0.7975261
0.33875775 -0.27160883 -0.29793745 192 0 0 0.9375772
0.40396503 -0.072486326 -0.30289656 255 12 0 0.86394733
0.33875775 -0.14901206 0.25236723 58 255 198 0.4330544
-0.20707406 -0.42098475 -0.2523526 0 204 255 0.32877734
-0.12910919 -0.70299226 0.29884666 255 76 0 0.8002042
-0.20707406 0.6307921 -0.19996114 0 228 255 0.35017535
-0.20707406 0.3423668 0.04651592 255 244 0 0.6353421
0.09319469 0.02725968 0.043170955 255 220 0 0.6589248
-0.12016336 -0.043140113 0.17395511 128 0 0 1.0
-0.20707406 0.58546 -0.112894885 255 32 0 0.84684896
-0.13793832 0.42192638 -0.30289656 186 255 70 0.55704206
-0.13369879 0.41111356 -0.22493169 222 255 34 0.5925133
0.36454505 -0.44671378 0.24293524 176 0 0 0.95604926
-0.12910919 -0.16556185 0.31498808 54 255 202 0.42987996
0.4031677 -0.54941577 0.32090008 255 112 0 0.76650655
0.33875775 -0.14901206 0.25236723 255 12 0 0.86355907
-0.19857551 0.39001307 -0.06896308 255 216 0 0.6640808
0.33875775 -0.21351928 -0.23519993 202 255 54 0.5741735
-0.20707406 -0.8088837 0.31282938 228 0 0 0.90506315
-0.20707406 -0.41627848 -0.29251158 140 0 0 0.98832357
-0.16090578 0.23591144 -0.07160794 214 255 42 0.58751816
-0.20707406 0.57873124 -0.14325236 160 0 0 0.9714229
0.38574275 -0.26927516 0.24293524 0 8 255 0.1371378
-0.20707406 0.07253336 0.26063243 0 0 228 0.09855349
-0.0311718 -0.043140113 0.22412954 128 0 0 1.0
-0.20707406 -0.24150418 -0.25947037 128 0 0 1.0
-0.20707406 -0.39274707 -0.27183896 204 0 0 0.92701846
0.15729351 0.02725968 -0.09778421 128 0 0 1.0
-0.16841249 -0.7872776 -0.30289656 255 48 0 0.8298213
0.2687663 -0.043140113 -0.2508357 156 0 0 0.97622675
0.08914962 -0.030907664 0.32090008 30 255 226 0.40764686
-0.20707406 0.6348177 -0.1295419 255 148 0 0.7330607
-0.1328431 0.80284375 0.051786177 255 4 0 0.8730081
-0.14801212 -0.21890624 0.24293524 248 0 0 0.885802
-0.12576424 0.3605502 0.2963963 164 0 0 0.9651694
-0.20707406 0.7595148 -0.17637138 144 0 0 0.98453873
-0.17426619 0.22505978 -0.06896308 0 220 255 0.3429827
-0.12693107 0.17303781 0.08696663 206 255 50 0.57741845
0.33875775 -0.10130746 0.31269324 46 255 210 0.42205417
0.07895916 0.02725968 -0.2995905 255 196 0 0.6851739
-0.14425875 0.743529 0.10186338 128 0 0 1.0
-0.20707406 0.7072789 0.29355696 255 192 0 0.6888808
-0.055947863 -0.043140113 -0.21742496 252 0 0 0.8796473
-0.14915954 -0.13563222 -0.22493169 82 255 174 0.45779318
0.29379523 -0.043140113 -0.02285316 214 255 42 0.5870376
-0.20707406 0.30860603 0.1560829 22 255 234 0.39675692
0.40672657 -0.6660616 0.24293524 0 164 255 0.28944135
0.4167226 -0.62518305 0.28875342 240 0 0 0.8914701
0.3994338 -0.7831547 -0.22493169 128 0 0 1.0
-0.16405629 0.4445632 -0.19422415 148 0 0 0.9838899
-0.18774329 0.41070515 -0.22493169 0 248 255 0.3717604
0.4167226 -0.24510194 0.25631508 2 255 254 0.3795147
-0.20707406 -0.8061027 0.25938776 128 0 0 1.0
-0.15726912 -0.6942604 0.32090008 255 60 0 0.8182103
-0.05495604 -0.043140113 -0.17757712 248 0 0 0.88254005
-0.12576424 0.57136065 -0.26771608 90 255 166 0.46504608
0.33875775 -0.73568344 -0.27300578 255 236 0 0.64620316
-0.18035325 0.16477264 0.08696663 255 244 0 0.6384594
0.37529948 -0.72210914 -0.22493169 184 0 0 0.9477923
0.33875775 -0.22477935 -0.2562421 244 0 0 0.8886904
-0.20707406 -0.2864667 -0.2688246 255 56 0 0.82272404
0.36901796 -0.73895067 0.32090008 255 96 0 0.78049546
-0.18811278 0.16216668 -0.06896308 255 104 0 0.7748799
-0.12576424 0.26510206 -0.16824235 74 255 182 0.4494684
-0.14935401 -0.04885767 -0.22493169 176 0 0 0.95461726
-0.12910919 -0.4139642 -0.22948238 128 0 0 1.0
0.38294235 -0.6591383 0.24293524 255 228 0 0.65284246
-0.20707406 0.0993514 -0.014296278 0 244 255 0.36471632
-0.16841249 0.6763769 -0.06303161 255 180 0 0.7018074
0.39733344 -0.8498011 -0.22493169 184 0 0 0.9480044
-0.12693107 0.17303781 0.08696663 0 216 255 0.3391581
-0.20588775 -0.69601065 0.32090008 204 0 0 0.9273694
-0.20707406 -0.7738783 0.24878891 0 44 255 0.17008573
-0.12576424 0.14386663 0.060673665 122 255 134 0.49721128
-0.20707406 0.845492 -0.09070534 255 164 0 0.7172779
-0.20707406 -0.60657185 -0.26160958 255 228 0 0.65249276
-0.18980472 0.860486 0.031191325 0 0 172 0.046620265
0.2527611 -0.043140113 0.114679255 128 0 0 1.0
-0.20707406 -0.009243198 0.0069792396 128 0 0 1.0
-0.12576424 0.7918948 -0.12820002 128 0 0 1.0
-0.119541034 0.02725968 -0.07617809 86 255 170 0.46155652
-0.14915954 -0.13563222 -0.22493169 228 0 0 0.9050138
0.30834192 -0.043140113 0.20337911 255 44 0 0.8345645
0.36349487 -0.83469045 0.24293524 208 0 0 0.92233574
-0.20707406 0.04760172 0.2766571 180 0 0 0.9528847
-0.20707406 0.58872724 0.2454634 0 244 255 0.3666424
0.3603444 0.02725968 0.22234039 54 255 202 0.42754093
0.056769606 -0.043140113 0.02562935 255 136 0 0.7440067
-0.18486504 0.34022757 -0.09443925 0 204 255 0.3263343
0.4167226 -0.8022132 -0.2812321 208 0 0 0.9237725
0.22131453 -0.02865176 -0.30289656 184 0 0 0.9482328
0.33875775 -0.7584176 0.26088524 140 0 0 0.9889579
-0.19925617 -0.07130003 -0.30289656 0 0 192 0.06533646
-0.20707406 0.5353051 0.25839597 192 0 0 0.9387238
-0.15602449 -0.57880086 -0.22493169 0 136 255 0.26082057
-0.12910919 -0.7538279 -0.26903853 255 100 0 0.77764165
0.33875775 -0.77689266 -0.2523915 0 80 255 0.20413251
-0.12576424 0.8024353 -0.17833558 142 255 114 0.5172155
-0.20689903 0.27295884 0.32090008 248 0 0 0.88366014
-0.12576424 0.28931415 0.09285921 136 0 0 0.9932393
-0.14987908 0.38946855 0.08696663 210 255 46 0.5838806
-0.12576424 0.11673743 -0.25385007 128 0 0 1.0
-0.20693792 0.21539438 0.08696663 252 0 0 0.8798982
-0.20647119 -0.043140113 0.0031480903 255 48 0 0.8290592
-0.18321203 0.27838466 0.32090008 255 4 0 0.87365925
-0.20707406 0.3132734 -0.120673865 128 0 0 1.0
-0.16897649 0.6707566 0.088969715 255 124 0 0.7547494
-0.12576424 0.2075376 -0.038313884 160 0 0 0.97019726
-0.20079252 -0.40618524 0.32090008 132 0 0 0.9984836
0.3783333 -0.043140113 -0.029076343 255 48 0 0.8284193
-0.12576424 0.10203515 0.2937903 0 252 255 0.37577212
-0.12910919 -0.71695554 -0.24474867 128 0 0 1.0
-0.20707406 0.1270057 -0.1276944 128 0 0 1.0
0.4099743 -0.7410315 -0.30289656 255 16 0 0.861694
-0.07043622 -0.043140113 -0.10696341 174 255 82 0.54616606
-0.20707406 0.60930264 0.22449905 0 112 255 0.23546202
-0.1782918 0.6089721 -0.30289656 164 0 0 0.9663001
0.4167226 -0.7385811 -0.2757868 255 116 0 0.76338184
-0.17041561 -0.06494071 0.24293524 255 180 0 0.6995941
0.3609667 -0.8688791 0.32090008 0 144 255 0.26923424
-0.20707406 0.69041795 -0.102432154 78 255 178 0.45203194
-0.13846342 0.1315953 0.09698207 214 255 42 0.58462685
-0.12576424 0.8053913 -0.059589412 128 0 0 1.0
-0.12576424 0.85076225 -0.07176351 0 0 224 0.09455449
-0.12984818 -0.32051918 0.24293524 255 52 0 0.82542056
-0.06361015 0.02725968 -0.025089616 200 0 0 0.9324812
0.4167226 -0.2260629 0.2966102 180 0 0 0.9502723
0.38821262 -0.71055734 -0.30289656 184 0 0 0.946146
-0.2016871 -0.84558105 -0.22493169 0 0 128 0.0
-0.12576424 0.62742764 -0.059297692 255 208 0 0.6740049
0.35194308 -0.41421703 -0.22493169 255 40 0 0.8375117
-0.12576424 0.3340822 0.23198633 0 16 255 0.14348736
0.3994338 -0.7831547 -0.22493169 255 168 0 0.7132945
-0.021136904 0.02725968 0.024015212 128 0 0 1.0
-0.20707406 0.27424237 0.11572942 0 52 255 0.1787087
-0.20532379 0.1315953 -0.2121547 255 120 0 0.7597511
-0.20707406 0.71966696 0.19474444 26 255 230 0.4007857
-0.12576424 0.5995789 0.287431 255 168 0 0.70998996
-0.1466119 0.02725968 -0.15824635 0 4 255 0.13154235
0.4167226 0.0148716485 0.04602973 255 64 0 0.81492865
-0.20707406 0.044490125 0.05960406 240 0 0 0.8938143
0.33875775 -0.1659508 0.2793603 255 116 0 0.76370865
-0.14412265 0.4445632 0.17323555 255 204 0 0.67459327
0.33724084 -0.043140113 -0.22401765 196 0 0 0.93701935
-0.12576424 0.5663821 -0.20305328 255 52 0 0.8252273
0.15632114 -0.043140113 0.24777766 0 176 255 0.30192694
-0.18292032 -0.8712906 0.3131989 255 156 0 0.7217875
-0.12576424 0.62359655 -0.023806084 0 12 255 0.14001551
0.4167226 -0.4353759 -0.24058689 255 196 0 0.6824535
-0.20707406 0.71799445 -0.23652236 0 0 152 0.027017193
0.33875775 -0.7148358 0.31166255 132 0 0 0.99949443
-0.12910919 -0.15638267 0.26953936 255 168 0 0.7103818
-0.20707406 0.71966696 0.19474444 255 188 0 0.6941044
-0.1860708 0.4445632 0.21815918 0 216 255 0.3382737
-0.12576424 0.5286151 0.22735782 128 0 0 1.0
0.14609177 0.02725968 -0.23068812 128 0 0 1.0
-0.017227976 0.02350632 -0.30289656 170 255 86 0.54400694
-0.19820601 0.32575867 -0.30289656 255 0 0 0.8757026
-0.20707406 -0.4649166 0.26329672 255 192 0 0.6900376
-0.12905085 0.20020592 0.24293524 255 16 0 0.8623787
-0.12910919 -0.40622413 -0.25192475 255 52 0 0.82741255
0.26532415 0.01975296 -0.30289656 0 64 255 0.18982482
0.25410295 0.02725968 -0.2888944 42 255 214 0.41589433
-0.20707406 -0.38216764 -0.2560476 0 0 236 0.108524375
-0.12910919 -0.09347013 -0.25853688 255 112 0 0.7663292
0.4167226 -0.62518305 0.28875342 0 244 255 0.36474717
0.4167226 -0.51406026 0.29159275 122 255 134 0.49777582
-0.19703917 0.02725968 -0.12578854 102 255 154 0.47480017
0.4020592 0.02725968 -0.047473636 90 255 166 0.46651635
0.38138655 -0.08619678 -0.22493169 148 0 0 0.9812765
0.4167226 0.002075222 0.30705348 0 112 255 0.238291
-0.12576424 0.5765337 -0.033607606 128 0 0 1.0
-0.20707406 0.78176266 0.26671946 255 204 0 0.67579335
0.056769606 -0.043140113 0.02562935 130 255 126 0.5048125
-0.12576424 0.3928913 0.056395225 128 0 0 1.0
-0.20707406 0.0057896865 0.2745568 255 52 0 0.8259322
-0.20707406 0.07253336 0.26063243 255 68 0 0.8089188
0.4167226 -0.7675384 -0.29626495 128 0 0 1.0
0.36365047 -0.8712906 0.29071763 192 0 0 0.9409996
-0.15048195 -0.7009114 -0.22493169 0 252 255 0.37321854
-0.12576424 0.43826222 0.017733684 255 8 0 0.8689959
0.40863243 0.02725968 0.25310627 128 0 0 1.0
-0.15917495 -0.7687053 -0.22493169 0 52 255 0.17661986
-0.12576424 0.81931573 0.14591187 176 0 0 0.9556309
0.3610834 -0.4811163 -0.22493169 255 164 0 0.71764106
-0.16425073 0.02725968 0.04995812 254 255 1 0.62624043
0.20256719 0.02725968 -0.057158474 136 0 0 0.9922929
0.4025065 -0.026181933 -0.30289656 122 255 134 0.4959362
-0.13696596 0.34022757 0.15192114 255 232 0 0.64732856
0.03992811 -0.043140113 -0.19342679 142 255 114 0.51714975
-0.12576424 0.7918948 -0.12820002 0 248 255 0.37165725
-0.12576424 0.694463 0.1713297 128 0 0 1.0
-0.20707406 0.10304642 0.3040197 250 255 6 0.6215584
0.2566311 -0.043140113 0.28840336 246 255 10 0.61789244
0.36683986 -0.56641287 0.24293524 128 0 0 1.0
-0.18758771 -0.6313479 -0.22493169 0 240 255 0.36462823
0.0048448923 -0.043140113 0.31946096 255 12 0 0.8651215
-0.119541034 0.02725968 -0.07617809 0 0 232 0.10419724
0.33875775 -0.2576067 0.2802938 128 0 0 1.0
-0.15003467 0.34022757 -0.1376126 255 16 0 0.8604615
0.19632454 -0.043140113 0.23424222 132 0 0 0.9973251
-0.18830726 0.23591144 0.15386589 220 0 0 0.91156
-0.20707406 0.030429613 0.06345466 255 64 0 0.81399345
-0.16257827 0.2833049 0.061471015 128 0 0 1.0
0.33875775 -0.6687065 -0.26617974 255 216 0 0.6664331
-0.12942034 -0.11538742 -0.30289656 0 0 244 0.11579665
0.38451758 -0.5915778 -0.30289656 0 212 255 0.33508134
-0.12910919 -0.8149708 0.27692938 128 0 0 1.0
-0.17527747 -0.44367996 0.32090008 255 116 0 0.7616507
0.39935598 -0.8712906 -0.23463595 255 12 0 0.8639706
-0.12576424 0.33987755 -0.24027571 0 228 255 0.35119268
-0.023801217 -0.043140113 0.06281289 172 0 0 0.9570219
-0.1259976 0.23591144 0.1923524 0 224 255 0.34704474
0.38338965 -0.3898883 0.32090008 14 255 242 0.3912695
-0.18735434 -0.13129543 -0.22493169 255 80 0 0.79714316
-0.20707406 0.1299228 -0.0363108 62 255 194 0.43725282
-0.18360098 -0.043140113 0.06726636 0 0 128 0.0
-0.19925617 -0.07130003 -0.30289656 255 192 0 0.6867841
-0.20707406 -0.005742656 0.12663944 246 255 10 0.6163595
-0.20707406 -0.019997641 -0.060853496 6 255 250 0.38191253
-0.20707406 -0.31845778 -0.2798124 255 76 0 0.80176747
0.33875775 -0.6151482 0.2839888 255 156 0 0.72236586
-0.20707406 0.09334214 0.027262937 128 0 0 1.0
0.13315922 -0.043140113 -0.032790814 128 0 0 1.0
0.085065655 -0.043140113 0.052369606 178 255 78 0.5509506
-0.12576424 0.85076225 -0.07176351 212 0 0 0.9207495
-0.009565675 0.02725968 -0.04010305 10 255 246 0.3855801
0.4167226 -0.5705746 0.29622126 0 0 248 0.11921399
-0.1782918 0.6089721 -0.30289656 0 204 255 0.32839766
-0.20707406 -0.005742656 0.12663944 255 0 0 0.8749398
-0.12967318 0.36255327 -0.30289656 90 255 166 0.46621078
0.3547824 -0.79190606 0.32090008 255 40 0 0.83595586
0.33875775 -0.5449817 -0.2446514 255 108 0 0.77236813
-0.19925617 0.4445632 -0.08654358 128 0 0 1.0
-0.20485705 -0.22520721 0.32090008 128 0 0 1.0
-0.12910919 -0.26931405 0.27576253 255 180 0 0.70086205
-0.1555383 0.8409024 0.14340316 255 152 0 0.7293142
-0.12576424 0.26836926 -0.13630962 255 44 0 0.83440197
0.09037481 0.02725968 -0.16993427 255 180 0 0.69842434
0.21098793 0.02725968 0.091653466 148 0 0 0.98245806
-0.012618921 0.02725968 -0.10206265 178 255 78 0.5511385
-0.20454589 0.8573355 -0.053152297 26 255 230 0.40052792
0.30565816 -0.043140113 -0.27868447 255 72 0 0.8040339
-0.14377257 0.2430681 -0.018730298 255 116 0 0.76192486
-0.12576424 0.34831774 0.30470034 250 255 6 0.62167007
-0.12576424 0.5771171 -0.15264548 128 0 0 1.0
-0.12576424 0.64331627 -0.062292606 236 0 0 0.8944441
-0.20707406 -0.7653603 -0.24054797 255 204 0 0.6753691
-0.18292032 -0.8712906 0.3131989 255 12 0 0.8665236
0.4167226 -0.3487569 -0.25573647 255 112 0 0.7684487
-0.12576424 0.034144077 -0.050410207 255 112 0 0.76653445
-0.14562011 0.29919344 0.06071256 240 0 0 0.8924275
-0.1791475 -0.8029717 0.32090008 128 0 0 1.0
-0.12910919 -0.14436412 -0.25589204 90 255 166 0.46471435
-0.12576424 0.72147554 0.30629504 0 156 255 0.2810945
-0.20707406 0.31414855 -0.2791123 0 120 255 0.24647868
0.21866968 0.00514792 -0.30289656 255 96 0 0.7830442
-0.20707406 0.25605902 -0.053716272 234 255 22 0.6077039
-0.12576424 0.3612114 0.06362968 250 255 6 0.62001675
-0.14950958 -0.36550117 -0.22493169 148 0 0 0.98346066
0.17747997 -0.043140113 0.22235984 0 148 255 0.27277163
-0.18375655 0.2770428 -0.04272846 198 255 58 0.5712349
-0.20707406 -0.6192516 0.31813854 255 236 0 0.64567876
-0.20707406 -0.76273495 0.2547204 90 255 166 0.4646885
-0.12576424 0.5437258 0.18068393 255 192 0 0.6888564
0.24988283 -0.043140113 -0.2732197 128 0 0 1.0
-0.16541761 0.634526 0.039884336 255 140 0 0.7410446
-0.16594267 -0.3271508 0.32090008 128 0 0 1.0
-0.12576424 0.21988674 -0.041464377 144 0 0 0.98706853
