ply
format ascii 1.0
element vertex 922
property float x
property float y
property float z
property uchar red
property uchar green
property uchar blue
property float weight
end_header
-0.26080647 0.009273836 0.07466924 0 0 128 0.0
-0.5708078 0.2555472 0.08395951 128 0 0 1.0
-0.15619211 -0.07948424 0.021395776 255 4 0 0.8725695
-0.15325835 -0.0671205 -0.49708918 0 0 156 0.02879694
0.02316345 -0.059180707 0.20943622 128 0 0 1.0
0.023885252 -0.06616587 -0.111927606 0 0 128 0.0
-0.14746067 -0.059483398 0.59541273 0 124 255 0.24879076
-0.13898534 0.12413311 -0.0014689728 0 0 128 0.0
0.7068474 0.007271424 0.08405264 255 44 0 0.8345246
-0.1938887 -0.003951397 0.16612823 0 0 128 0.0
0.13571762 -0.066515125 0.20715441 190 255 66 0.5643083
-0.68014884 0.2591795 0.18619892 0 0 128 0.0
0.10803311 -0.074082375 0.0497788 0 0 128 0.0
-0.22392486 -0.0066756085 -0.050830755 0 0 128 0.0
0.08905677 -0.06528108 0.29940507 0 0 232 0.102290906
0.75404376 0.06715751 0.021139653 128 0 0 1.0
-0.2944051 -0.009306684 -0.13409385 255 64 0 0.815519
-0.00039981536 -0.042812154 0.23076423 0 80 255 0.20403226
-0.30877125 0.005269012 0.15760636 0 36 255 0.16425581
0.119069666 -0.081346944 0.03215292 160 0 0 0.9691993
0.051686175 -0.030751122 0.08363353 0 0 128 0.0
-0.044941835 0.023942668 -0.05099374 184 0 0 0.94894886
-0.46912715 0.079078846 0.021582048 0 0 128 0.0
-0.12573682 0.058379494 0.022606539 166 255 90 0.53862715
-0.7008016 0.2510767 -0.1065956 0 0 128 0.0
-0.23088671 -0.06674796 -0.63953984 0 0 128 0.0
0.079859644 -0.046304733 -0.23665924 0 0 128 0.0
-0.48195663 0.17982809 0.002605702 0 0 128 0.0
0.050684966 -0.049261782 0.2559341 176 0 0 0.9533102
0.1741127 0.05197643 -0.027220922 110 255 146 0.4839398
0.12400584 -0.064163454 0.26792526 0 0 148 0.021124514
-0.27547532 0.02589851 -0.039910622 204 0 0 0.92924666
0.92778796 0.028971981 0.010405795 0 0 128 0.0
-0.28818834 0.07714629 -0.003657656 0 0 128 0.0
-0.26313487 -0.03710761 -0.097794294 0 0 128 0.0
0.12670678 -0.07254565 0.064354494 110 255 146 0.4825377
0.254605 0.024478195 -0.052879732 0 0 128 0.0
0.0650744 -0.069262624 -0.07092472 0 0 160 0.032600243
-0.028596574 -0.028655574 -0.058886968 0 0 128 0.0
0.02162671 -0.04171782 0.2435005 0 72 255 0.19939432
0.4648117 0.05768098 -0.025428062 0 0 128 0.0
0.06255974 -0.06621244 0.22438446 0 216 255 0.34085566
-0.26837373 0.024664465 0.06640347 170 255 86 0.5425592
-0.085036635 -0.06497839 0.35819682 128 0 0 1.0
-0.21468118 0.08992912 -0.010852369 0 0 208 0.08094252
-0.28253034 0.026294338 -0.07751406 128 0 0 1.0
0.24300964 -0.06036819 -0.11718976 0 0 128 0.0
-0.6146513 0.2464898 0.07273668 255 124 0 0.7548657
-0.2022243 -0.033102784 -0.049876116 0 176 255 0.29859474
0.8789616 0.044735152 -0.013320457 0 0 196 0.06907617
0.025538404 -0.008957424 -0.060749684 0 184 255 0.30915886
-0.39846063 0.26129833 0.018229172 14 255 242 0.38891765
-0.39634183 -0.016804086 -0.030597081 0 0 128 0.0
-0.5560459 0.21249536 0.005865442 0 0 128 0.0
0.34285083 0.011089976 -0.058723982 255 80 0 0.79988843
-0.0104584405 -0.120719954 -0.21181536 0 0 128 0.0
-0.14657588 -0.0014134576 0.11294792 0 0 128 0.0
-0.06466326 -0.063092396 0.2495776 38 255 218 0.41492525
-0.3731977 0.06576048 0.030732604 78 255 178 0.4520042
-0.76976836 0.25438303 -0.18741389 0 0 128 0.0
-0.22273737 -0.0328001 -0.093463495 128 0 0 1.0
-0.28381094 -0.064512715 0.029149301 222 255 34 0.5935614
-0.5242401 0.113259554 0.01774021 0 0 128 0.0
0.5107973 0.016398696 -0.057815913 114 255 142 0.48705548
0.3984061 0.06629601 0.0038164628 0 0 128 0.0
-0.101312056 -0.07329073 0.40679023 0 208 255 0.33243215
-0.06103099 -0.06642199 -0.34923667 255 20 0 0.85792595
0.26657292 -0.062696576 -0.03644133 0 140 255 0.2638674
-0.0780282 -0.06779574 -0.43592247 255 68 0 0.810119
0.09934824 -0.059087574 0.34357455 0 0 128 0.0
-0.047293507 -0.070356965 0.2507185 176 0 0 0.9540759
-0.015301486 -0.08795955 -0.20140748 0 0 128 0.0
0.027680513 0.06112699 0.0064242547 0 0 128 0.0
-0.2861859 -0.036478948 0.12326266 0 0 128 0.0
-0.21882571 0.05023014 0.042025276 0 0 128 0.0
-0.24758126 0.007178288 -0.049852833 255 204 0 0.67786103
-0.043265402 -0.0542911 0.50502485 0 212 255 0.33354717
-0.15458553 -0.06721364 0.52674866 128 0 0 1.0
0.75346166 -0.13056903 0.0065173903 144 0 0 0.9868587
-0.11432774 -0.05722487 -0.56975806 255 72 0 0.8071606
0.027098425 -0.06677125 0.109478615 255 140 0 0.7395738
0.15744147 -0.031146947 0.09657936 0 0 168 0.041753758
0.7719025 0.06487569 0.029847816 128 0 0 1.0
0.8207054 -0.037550006 -0.041540496 0 0 128 0.0
0.42862856 -0.067912154 -0.026499122 0 0 128 0.0
0.46397346 -0.0033925844 0.08600848 0 0 128 0.0
-0.13064973 -0.060833868 0.5234191 0 0 128 0.0
0.11951206 -0.06486197 -0.19044079 128 0 0 1.0
0.060673747 -0.07440835 -0.15800637 0 0 128 0.0
0.21199554 -0.07119518 -0.051133443 10 255 246 0.38608822
0.10775371 -0.024837013 0.08551953 136 0 0 0.9941418
-0.36430326 0.058123372 0.03354995 0 0 128 0.0
0.0481936 -0.0078398 0.08577565 0 0 128 0.0
0.051686175 -0.030751122 0.08363353 0 0 128 0.0
0.72787267 0.037470587 0.07154921 0 0 128 0.0
-0.0074082594 -0.05936698 -0.18939301 0 0 128 0.0
-0.07805148 -0.06656169 0.40159792 0 40 255 0.16812316
0.6065871 -0.07550269 0.002465999 255 52 0 0.82439727
-0.7470899 0.2589932 -0.218265 255 248 0 0.6323913
0.8789616 0.044735152 -0.013320457 0 0 128 0.0
-0.46083814 0.24676919 0.00796099 0 0 132 0.006430769
0.5579238 0.052884504 -0.03348428 0 0 128 0.0
-0.63965815 0.25971502 0.113902554 170 255 86 0.5433924
-0.16536595 0.0350025 -0.121986225 134 255 122 0.508668
0.04188367 -0.050379407 0.22161368 0 0 128 0.0
0.57538676 0.051021796 0.06137416 0 0 128 0.0
-0.56892186 0.015537195 -0.0056135 0 0 128 0.0
0.15762773 -0.07054323 0.11704587 255 128 0 0.75055975
-0.31992418 -0.009446386 0.0862879 255 68 0 0.81143034
0.0468897 -0.0659796 0.35393587 0 0 128 0.0
-0.019539151 -0.059925795 -0.22713614 255 244 0 0.63699216
-0.042520322 -0.0675629 -0.38718936 192 0 0 0.93913436
-0.015464477 -0.061904922 0.13003826 128 0 0 1.0
-0.11362922 0.042639606 -0.033344574 0 0 128 0.0
-0.66003156 0.23524368 0.010475647 14 255 242 0.3892327
0.1895732 -0.079856776 -0.008104872 0 0 128 0.0
0.26519915 -0.023370134 -0.07008651 0 0 128 0.0
-0.031576905 -0.06765603 -0.39557156 0 0 255 0.12746836
-0.19610065 -0.060717445 0.70060927 86 255 170 0.45951286
0.0066086287 -0.067260206 -0.33750162 255 0 0 0.8773379
0.47698912 -0.065700196 -0.028431684 222 255 34 0.5946229
0.06195436 -0.14756623 -0.19363067 0 0 128 0.0
0.73241305 -0.036688503 0.074948646 222 255 34 0.5932418
0.7851743 0.038332094 0.06558854 0 0 128 0.0
-0.18904564 -0.05964639 -0.03343771 255 28 0 0.8473815
-0.61360353 0.24714173 -0.08957509 0 0 128 0.0
0.11951206 -0.06486197 -0.19044079 74 255 182 0.44713718
0.04206994 -0.11149955 0.23448965 255 248 0 0.632104
-0.161268 -0.011658356 -0.13481563 0 176 255 0.29969025
0.08351521 -0.057015307 -0.34525514 0 0 172 0.043221477
0.021393878 -0.06476884 -0.26129356 170 255 86 0.54374915
0.6804668 0.017772445 0.08342398 0 0 180 0.052518774
0.7303175 -0.12495761 0.0001841808 0 0 128 0.0
-0.19740455 -0.016804086 -0.08051768 220 0 0 0.9105174
-0.24460094 -0.007374123 0.090316 86 255 170 0.46170446
-0.3467705 -0.016338408 -0.03835061 0 0 128 0.0
-0.06955288 -0.061020132 0.0712698 255 60 0 0.817229
0.05115065 0.060288772 -0.0026098818 255 152 0 0.7281106
-0.32339352 0.024315208 0.10230718 0 0 128 0.0
-0.05588526 -0.062044624 -0.30415913 0 64 255 0.19035588
-0.48237568 0.008621887 -0.022028621 255 252 0 0.627641
0.042186365 -0.04479128 0.09052556 174 255 82 0.5478248
-0.64084566 0.24940027 0.048381772 0 68 255 0.19504787
-0.099658914 -0.06800529 -0.5325505 128 0 0 1.0
-0.58750236 0.24779369 -0.071436964 128 0 0 1.0
-0.23533393 0.019588584 -0.13528132 0 56 255 0.18297468
0.03077727 -0.07813377 -0.058514427 255 76 0 0.8032412
0.8836184 -0.036199536 -0.03269263 0 0 128 0.0
0.0046062125 0.036818642 -0.042006172 0 0 128 0.0
-0.08044973 -0.056293506 0.5009036 0 0 128 0.0
0.14980435 -0.06302255 0.24231303 234 255 22 0.6047519
-0.070949905 -0.06723692 -0.5068451 0 0 128 0.0
-0.29002774 0.016026156 0.09343604 190 255 66 0.5642907
-0.20108339 0.028110476 0.1573968 0 0 128 0.0
-0.3197147 0.03272068 0.056810524 255 232 0 0.6508996
-0.16890511 0.0498576 -0.02093428 238 255 18 0.60887593
-0.30614015 0.027737936 -0.11576944 255 132 0 0.7451767
-0.23202765 0.070650086 -0.01001415 0 0 128 0.0
0.10442412 -0.03955242 -0.12708539 0 0 128 0.0
0.6882902 -0.02388238 0.08256247 0 0 128 0.0
0.13555464 -0.061602227 -0.040027045 0 0 220 0.09119676
0.6153651 -0.07429194 0.030965442 255 200 0 0.68163925
0.7241007 0.04331484 0.067358114 255 32 0 0.8433874
-0.17935956 -0.060112067 -0.6404246 0 0 188 0.061448835
0.19211112 -0.058994442 -0.18836851 200 0 0 0.92947835
0.013197958 0.0132553745 -0.05606962 0 0 128 0.0
-0.087574586 0.059660103 0.008100693 0 0 128 0.0
-0.35496643 -0.009725794 -0.042541698 0 0 128 0.0
0.030707419 -0.10227913 -0.21016221 128 0 0 1.0
-0.17549443 -0.077924214 0.004119153 0 40 255 0.16575797
-0.45292163 0.22781613 0.012175368 255 120 0 0.75813013
-0.16776419 -0.059949074 -0.6614733 128 0 0 1.0
0.2570498 -0.06621244 0.0907584 0 0 128 0.0
-0.21540299 0.03435055 0.06237537 142 255 114 0.51647705
-0.7340276 0.24998237 0.23269679 150 255 106 0.52359915
0.08533135 -0.07287162 -0.058514427 255 220 0 0.6626115
-0.71451575 0.2571305 0.16240282 0 0 232 0.10540312
0.06516753 -0.04323127 -0.18995182 0 0 172 0.04326125
0.10032616 -0.04223006 -0.19137214 0 0 128 0.0
0.1285462 -0.060577743 0.2918611 0 0 128 0.0
0.021743134 -0.051194347 0.37372714 2 255 254 0.37747702
0.6149926 0.04231363 0.06987277 255 116 0 0.76289815
-0.00030668356 -0.06469898 -0.10452333 234 255 22 0.6053364
-0.13404918 -0.066259004 0.46777067 0 0 152 0.026381673
-0.5384666 0.024338491 -0.011946709 255 24 0 0.85413873
-0.6800091 0.25815502 -0.17186025 138 255 118 0.510407
0.26429108 0.010833852 0.08374995 0 0 232 0.105725884
-0.4250974 0.06392105 -0.0026331658 0 0 128 0.0
-0.014509835 -0.061066702 -0.16296583 0 0 128 0.0
-0.16506328 -0.06895993 -0.59045744 255 8 0 0.8682025
-0.17128006 -0.07280177 -0.015648844 255 132 0 0.7474025
0.024886455 0.05062597 -0.026103297 0 120 255 0.24539654
-0.016954638 -0.057830248 0.06980292 0 180 255 0.30480108
-0.08836624 -0.067586176 -0.4329887 114 255 142 0.48807403
-0.15540045 0.024012519 0.07315579 0 0 128 0.0
-0.73365515 0.25536096 -0.13486221 255 40 0 0.83882064
-0.44675136 0.20946845 0.004351991 255 64 0 0.8122379
-0.102825515 -0.063534796 -0.39054227 0 216 255 0.33757308
0.8330459 -0.054500654 0.050337613 255 52 0 0.8274502
0.20466113 -0.027351677 0.115695395 0 0 128 0.0
-0.16012709 -0.06535093 0.5214865 128 0 0 1.0
-0.12503831 -0.058109652 0.5726179 0 68 255 0.19401407
0.06498126 0.033582184 0.07029188 0 144 255 0.27009362
-0.6095289 0.2559896 0.12619641 0 0 128 0.0
0.08533135 -0.07287162 -0.058514427 255 144 0 0.7349824
0.033035804 -0.065700196 -0.15877473 0 0 128 0.0
-0.1674615 -0.0069550127 0.10859382 0 184 255 0.30863148
0.5653747 0.059287563 -0.025265075 0 0 128 0.0
0.74368244 -0.030588131 -0.051692255 0 0 156 0.028649174
-0.59986603 0.19116734 0.013339561 106 255 150 0.47872597
-0.29829353 -0.003346014 -0.06319448 70 255 186 0.4463769
-0.4893609 0.25384748 0.0037000438 130 255 126 0.50218546
-0.101638034 -0.05661948 -0.5435405 90 255 166 0.46564573
-0.54954964 0.24672264 0.020441137 128 0 0 1.0
0.05098766 -0.08483952 -0.22678687 0 0 208 0.07977887
-0.5223541 0.12355101 0.01846201 0 0 128 0.0
-0.5757905 0.2451626 0.030592902 0 0 160 0.03349086
0.88762325 0.03311651 0.04966238 0 0 128 0.0
0.045888495 0.022242945 -0.05253048 0 28 255 0.15447727
0.062909 -0.047073103 0.22289428 0 180 255 0.30362433
0.6355522 0.068740815 -0.0044027395 128 0 0 1.0
0.061698236 -0.06025177 0.3926802 0 0 196 0.06716114
0.75860745 0.0069920155 -0.05583678 255 128 0 0.75135314
0.48511517 -0.07850631 0.011593272 0 0 128 0.0
0.040882464 -0.06616587 -0.17807706 255 128 0 0.7517445
0.05115065 0.060288772 -0.0026098818 0 144 255 0.26752397
-0.13591188 -0.06339509 0.6584422 148 0 0 0.98426884
0.8836184 -0.036199536 -0.03269263 0 0 128 0.0
0.026376626 -0.115574226 -0.22399281 0 0 128 0.0
-0.09290658 -0.03349861 0.08100245 192 0 0 0.93845457
0.20708264 -0.014661975 -0.06037714 255 112 0 0.7649256
-0.166763 0.09989461 -0.0053108097 0 0 128 0.0
-0.12264008 -0.06036819 -0.2137712 0 0 128 0.0
-0.024358908 -0.05438423 0.39905998 0 0 128 0.0
-0.4530613 0.07044053 0.0009292645 0 0 248 0.12089669
0.55499005 0.06252402 -0.017953945 94 255 162 0.46804634
-0.33319604 -0.015476907 -0.04030645 0 176 255 0.29888925
-0.28509158 0.057192016 -0.005031403 0 0 128 0.0
0.91358477 0.007969938 -0.029456172 0 0 128 0.0
0.5887284 -0.033009652 -0.05425348 0 0 128 0.0
-0.00030668356 -0.06469898 -0.10452333 255 164 0 0.71373284
0.81551313 0.062174764 0.0077980026 0 0 128 0.0
-0.094140634 0.02370983 -0.05006239 0 80 255 0.20461208
-0.016116418 -0.05363915 -0.4537812 128 0 0 1.0
-0.1005437 -0.061392676 -0.4156888 0 0 128 0.0
-0.06103099 -0.06642199 -0.34923667 0 0 128 0.0
-0.14531855 -0.067260206 -0.4911518 128 0 0 1.0
0.119069666 -0.081346944 0.03215292 0 0 128 0.0
0.050871238 -0.08542162 0.25267434 0 0 128 0.0
0.24945927 0.038844336 -0.043216933 0 0 144 0.018737517
-0.120055564 -0.0816962 0.0014880771 0 0 128 0.0
0.67965186 -0.016804086 -0.059166376 184 0 0 0.9474027
-0.1906755 0.038844336 -0.1083186 228 0 0 0.9026581
-0.38211536 -0.015150933 0.09751071 118 255 138 0.49297073
-0.02154156 -0.063674495 -0.07299698 0 0 128 0.0
0.037785713 -0.050472546 -0.14734237 0 0 128 0.0
0.064119756 -0.13415474 -0.20899801 255 152 0 0.7256725
-0.28253034 0.026294338 -0.07751406 194 255 62 0.56569314
0.14074694 -0.03426698 0.13087648 0 0 224 0.09590214
-0.031576905 -0.06765603 -0.39557156 0 160 255 0.2857204
-0.04224091 -0.0564565 0.39333218 0 40 255 0.1657693
0.08365492 -0.024906874 -0.05925951 128 0 0 1.0
0.06353766 -0.047352508 0.24184735 38 255 218 0.4154191
-0.32639715 0.02438506 0.14032973 50 255 206 0.42376888
0.0016724432 -0.08744731 0.22601432 0 0 128 0.0
-0.52491534 0.21307746 0.0041424367 0 0 252 0.12305749
0.14032783 0.055049904 -0.021097267 255 152 0 0.7275909
0.7129943 -0.029051399 -0.054020643 0 0 128 0.0
-0.21365668 -0.069588594 -0.68026334 0 88 255 0.21424405
0.053036638 -0.066608265 0.31758976 0 0 128 0.0
0.6700356 0.0046869144 0.085356526 0 0 128 0.0
-0.40931094 -0.045233678 0.002326296 0 224 255 0.3464635
-0.17167588 -0.011891194 0.08132844 0 0 128 0.0
0.08758989 -0.069774866 0.08854643 160 0 0 0.9709525
0.07923098 -0.06446615 -0.30574244 0 0 128 0.0
0.21178599 -0.05508275 0.20599021 128 0 0 1.0
-0.5200723 0.24588442 0.0059352936 0 0 128 0.0
-0.19698542 0.11291029 -0.0015621089 255 160 0 0.7207427
-0.444749 -0.0065126214 -0.017045874 0 0 128 0.0
0.5037656 0.049275506 0.062258948 126 255 130 0.49843106
-0.026896851 -0.11815872 0.22380236 146 255 110 0.5177345
0.16028209 -0.06549064 0.20068148 0 0 128 0.0
-0.4979992 0.092420496 0.0058188746 102 255 154 0.4783251
-0.26532358 -0.045280248 0.061164606 0 0 128 0.0
0.2641514 0.037773278 -0.04421814 128 0 0 1.0
-0.16643701 -0.011495369 -0.12573493 128 0 0 1.0
-0.0085026035 0.04771549 -0.029246619 0 0 128 0.0
-0.32481384 0.027737936 0.13355412 0 0 128 0.0
-0.060518745 -0.061020132 -0.041051533 0 0 128 0.0
0.9798972 0.0031967491 0.011220731 240 0 0 0.89233327
-0.039516702 -0.06563034 -0.2936581 255 168 0 0.71359605
0.13380834 -0.072429225 -0.046383534 0 0 128 0.0
-0.6249661 0.24651307 0.10328511 0 0 128 0.0
0.18542866 -0.025558813 0.084122494 206 255 50 0.57858545
-0.12971838 -0.05936698 0.5495901 150 255 106 0.523712
0.119977735 -0.04697997 -0.26173598 128 0 0 1.0
-0.14534184 -0.06763275 0.5288442 166 255 90 0.54103637
-0.21018739 -0.027840633 -0.12536238 255 96 0 0.7808503
-0.13954416 -0.068680525 -0.54945457 154 255 102 0.52879137
-0.085036635 -0.06497839 0.35819682 0 0 128 0.0
-0.65605 0.25803858 0.17104115 0 0 128 0.0
-0.7520494 0.25191492 -0.19207065 0 0 128 0.0
0.41987383 0.04829758 0.061932974 0 0 128 0.0
0.15413517 -0.0359667 -0.16759932 0 0 128 0.0
0.08533135 -0.07287162 -0.058514427 128 0 0 1.0
0.69320303 0.010764001 -0.05925951 128 0 0 1.0
-0.12992792 -0.058528766 -0.54819727 0 0 212 0.0838266
0.1741127 0.05197643 -0.027220922 0 0 128 0.0
-0.018747501 -0.063511506 -0.11241656 0 0 128 0.0
0.743403 -0.08120724 -0.005706635 0 0 136 0.008633918
0.5103083 -0.05650307 0.06482017 0 0 144 0.017890671
-0.014370133 -0.057900097 0.29800802 255 132 0 0.747847
-0.28104016 -0.008724586 -0.05353168 0 0 128 0.0
0.88294315 0.021660848 -0.034369066 30 255 226 0.40456295
-0.5016315 0.21435806 0.0035603405 0 0 160 0.0336833
-0.28104016 -0.008724586 -0.05353168 0 96 255 0.22030453
-0.120055564 -0.0816962 0.0014880771 152 0 0 0.9784143
0.04090575 -0.054640353 -0.22713614 0 8 255 0.13461526
-0.008386183 -0.06355807 0.18713027 102 255 154 0.4782473
0.13555464 -0.061602227 -0.040027045 0 0 128 0.0
-0.30842203 0.09994118 -0.0062188813 0 84 255 0.21052586
0.053129774 -0.12677376 0.23774938 128 0 0 1.0
0.04742523 -0.06656169 0.19269511 158 255 98 0.5322608
0.03326864 -0.05135733 -0.16366434 128 0 0 1.0
0.30878654 0.057913817 0.04537815 0 0 128 0.0030591192
0.23805018 -0.069006495 -0.05627918 255 196 0 0.6824517
0.6505936 0.053676154 -0.03422936 132 0 0 0.9964642
-0.55578977 -0.014592116 0.007751435 255 204 0 0.6757894
0.16831504 -0.060601026 0.06556526 0 0 128 0.0
-0.019539151 -0.059925795 -0.22713614 128 0 0 1.0
0.9994324 -0.0297732 0.015761081 0 224 255 0.34721926
0.26277766 -0.066678114 -0.047640868 0 0 128 0.0
-0.31524414 0.006386637 0.073877595 0 0 208 0.07898651
-0.3946421 0.06853126 -0.0033549657 164 0 0 0.9654991
-0.20385419 0.010368176 0.06649661 0 0 128 0.0
0.19548728 -0.064349726 -0.15167315 136 0 0 0.9949278
-0.40109175 -0.027514659 -0.02414745 128 0 0 1.0
0.03077727 -0.07813377 -0.058514427 255 52 0 0.82611614
0.16831504 0.04417634 -0.037279546 255 80 0 0.7973628
-0.04231076 -0.06649184 0.35102537 0 200 255 0.32529438
0.20871252 -0.027910484 -0.09944746 110 255 146 0.48362994
0.10512263 -0.069588594 -0.10745711 128 0 0 1.0
-0.6249661 0.24651307 0.10328511 0 0 168 0.041921098
0.75232077 -0.012985534 0.08128186 232 0 0 0.90071696
-0.536534 0.23589563 0.004654682 0 0 128 0.0
-0.23244675 -0.011495369 0.09632324 0 0 128 0.0
0.5668881 -0.07412895 -0.008407564 0 0 128 0.0
0.04109202 -0.0687038 0.08486758 0 148 255 0.27374268
-0.28104016 -0.008724586 -0.05353168 0 0 128 0.0
-0.017303903 0.027295543 0.074180275 212 0 0 0.9201363
0.06239675 -0.124398805 -0.22282863 255 176 0 0.702527
-0.6865752 0.25380093 -0.19253632 0 0 128 0.0
0.7732297 0.03763358 0.06780051 224 0 0 0.90921205
0.04109202 -0.0687038 0.08486758 128 0 0 1.0
-0.0023556615 -0.052381825 0.438433 0 132 255 0.25603703
0.41437885 0.052931074 0.055786036 128 0 0 1.0
0.8207054 -0.037550006 -0.041540496 110 255 146 0.48485205
0.05909044 -0.0469334 0.18137917 190 255 66 0.56270695
-0.22019945 -0.0065359063 -0.017348563 0 136 255 0.26004243
-0.039516702 -0.06563034 -0.2936581 98 255 158 0.47091794
0.45708144 0.04145213 -0.043589473 94 255 162 0.46708307
-0.098727554 -0.06607273 -0.5647055 128 0 0 1.0
0.20871252 -0.027910484 -0.09944746 0 0 128 0.0
0.3581483 0.028739143 -0.051762108 198 255 58 0.5718359
-0.012204734 -0.0603449 0.21106608 128 0 0 1.0
0.73490447 -0.061415955 0.052223608 0 0 128 0.0
-0.06601374 -0.08649267 0.2341404 0 0 128 0.0
0.55757457 -0.052242123 -0.042401996 255 44 0 0.8346803
-0.06955288 -0.061020132 0.0712698 128 0 0 1.0
0.0016724432 -0.08744731 0.22601432 62 255 194 0.43618202
0.0698243 -0.04916865 -0.266579 0 0 128 0.0
-0.32302096 -0.005953809 0.017647075 0 16 255 0.14369987
-0.27559176 -0.033638313 -0.11695691 0 0 128 0.0
-0.20594974 0.11628646 0.02442268 0 0 128 0.0
0.04200009 -0.054943047 0.42215756 0 0 128 0.0
-0.1240371 -0.06730677 0.61718315 0 0 128 0.0
0.6116862 -0.02695585 -0.056605153 208 0 0 0.92480874
-0.1941681 0.08301382 0.02786869 255 160 0 0.7186572
-0.06240473 -0.05936698 -0.36113474 0 0 128 0.0
-0.66417605 0.24874832 0.17667583 0 0 128 0.0
-0.006057792 -0.14540085 -0.1935841 0 0 216 0.089587085
0.14032783 0.055049904 -0.021097267 0 0 232 0.105677076
-0.065222085 -0.083745174 0.21430254 0 0 128 0.0
0.029124117 -0.06614258 0.26566672 204 0 0 0.92714804
0.23842274 0.025432834 0.07753316 128 0 0 1.0
0.6882902 -0.02388238 0.08256247 254 255 1 0.6238144
-0.06466326 -0.063092396 0.2495776 255 220 0 0.66271496
0.20345037 -0.043464106 0.22126442 0 244 255 0.36770555
0.011987193 -0.06546735 -0.10713112 0 0 128 0.0
-0.7477419 0.25838783 -0.23556489 128 0 0 1.0
-0.188091 0.037773278 0.12626629 128 0 0 1.0
-0.46495935 0.1076947 0.022792807 0 0 128 0.0
0.8372137 0.019239325 -0.044078432 0 0 172 0.045536157
-0.5972117 0.20639499 0.010359227 255 244 0 0.63622695
-0.26576594 -0.034569673 0.14088854 196 0 0 0.93644494
-0.021285437 -0.06262672 0.20820218 0 168 255 0.29388845
0.55259186 -0.07641077 0.021931306 255 12 0 0.8652699
-0.26851347 0.009157415 -0.04060914 208 0 0 0.9247584
0.49743235 0.059334133 -0.023542073 204 0 0 0.927332
0.13161966 -0.065094806 0.23462936 255 104 0 0.7756202
0.60521334 0.06983515 0.017833347 0 0 128 0.0
0.021812985 -0.044185903 -0.18673865 0 244 255 0.36537805
-0.18424916 0.016165858 -0.049876116 0 0 128 0.0
0.3330949 -0.078809 0.028520638 26 255 230 0.40045458
-0.06955288 -0.061020132 0.0712698 192 0 0 0.94044125
-0.48575184 0.26749182 0.010731769 128 0 0 1.0
0.024793314 -0.053150192 -0.2059711 240 0 0 0.8915367
0.01256929 -0.054547224 -0.2296275 255 228 0 0.6519243
-0.22024602 0.00016984824 0.077649586 0 0 128 0.0
0.29188246 0.06427031 0.00046358706 0 0 128 0.0
0.10831252 0.006386637 -0.058886968 128 0 0 1.0
0.91530776 -0.05778368 0.01091804 0 200 255 0.32178548
0.38983765 -0.012566428 0.08544967 128 0 0 1.0
-0.042520322 -0.0675629 -0.38718936 0 232 255 0.3557731
-0.15942858 -0.07883229 0.00064985827 0 0 128 0.0
-0.23756921 -0.007211136 0.050081488 0 0 128 0.0
0.8064091 -0.0691462 0.002233161 255 48 0 0.8276911
-0.22024602 0.00016984824 0.077649586 0 0 128 0.0
-0.25107384 0.034187563 0.060559224 0 0 128 0.0
-0.24283136 0.12478506 0.02600598 0 168 255 0.29179853
-0.20594974 0.11628646 0.02442268 0 0 248 0.11912769
-0.003985533 -0.06341837 -0.20012686 255 220 0 0.6589913
-0.23894295 0.098916695 0.035994757 138 255 118 0.51194876
0.11231734 -0.059320416 -0.29892027 128 0 0 1.0
-0.58750236 0.24779369 -0.071436964 255 232 0 0.65077466
0.1544844 -0.058249354 -0.24394709 128 0 0 1.0
-0.27547532 0.02589851 -0.039910622 14 255 242 0.3919803
-0.047945455 -0.0658166 0.5140124 0 0 128 0.0
-0.10568943 -0.057900097 -0.49878892 0 16 255 0.14506832
-0.31582627 -0.050239705 -0.020957563 128 0 0 1.0
-0.31582627 -0.050239705 -0.020957563 0 0 128 0.0
0.03922931 -0.050379407 -0.17346683 0 0 128 0.0
0.08882393 -0.041228853 0.12512536 192 0 0 0.9373414
-0.5380241 0.0742358 0.013246425 128 0 0 1.0
0.06195436 -0.14756623 -0.19363067 0 0 128 0.0
0.03005547 -0.046444435 -0.26662555 62 255 194 0.4358635
0.11101344 -0.03715418 0.09294707 86 255 170 0.46161205
0.039834693 -0.1300335 -0.19656442 255 120 0 0.76033986
-0.45701954 0.04049749 0.038765535 0 0 128 0.0
-0.1240371 -0.06730677 0.61718315 0 216 255 0.33899873
0.07382912 -0.05070538 -0.33908492 162 255 94 0.53381544
0.36534303 -0.056782473 -0.041098103 0 0 128 0.0
-0.037304733 -0.053988405 -0.46907872 128 0 0 1.0
-0.33904025 0.012114464 0.09185273 0 0 128 0.0
-0.22220184 0.010670865 -0.056255892 255 88 0 0.7896
-0.014370133 -0.057900097 0.29800802 255 144 0 0.7353506
0.05708803 -0.048237298 -0.26662555 0 32 255 0.15880623
-0.30146012 0.02859944 0.14030644 0 0 128 0.0
-0.64084566 0.24940027 0.048381772 0 0 128 0.0
-0.1240371 -0.06730677 0.61718315 234 255 22 0.60771334
0.2719282 -0.024976725 0.10572992 0 0 128 0.0
0.22573301 -0.057946667 0.17672239 255 84 0 0.79542994
-0.482236 0.18997987 0.022443552 0 116 255 0.2427835
0.27088043 -0.08020604 0.00020746482 0 0 128 0.0
-0.19090834 -0.06891336 -0.6149754 0 0 216 0.08641589
0.3254345 0.059846375 -0.016161088 0 0 128 0.0
0.8221956 -0.06909963 0.014969431 255 228 0 0.65397936
-0.61332417 0.24637337 -0.050295226 0 0 168 0.041970134
-0.55578977 -0.014592116 0.007751435 0 0 216 0.09008075
0.11278302 0.043780517 0.06186312 0 0 128 0.0
-0.34183434 0.02552597 0.11040997 0 0 128 0.0
0.5027178 -0.013660763 -0.059934743 138 255 118 0.51154125
0.4887009 -0.076760024 -0.0014224058 10 255 246 0.38487196
0.05396799 -0.13019648 -0.20189644 0 0 128 0.0
0.7241007 0.04331484 0.067358114 10 255 246 0.38727662
0.62127924 0.0665987 -0.01050311 204 0 0 0.925523
0.051686175 -0.030751122 0.08363353 0 0 128 0.0
0.06647143 -0.06674796 -0.03502101 0 0 128 0.0
0.30080017 -0.057876818 -0.056325745 54 255 202 0.4278533
0.10472681 -0.07093906 -0.16450256 0 76 255 0.20203091
0.3330949 -0.078809 0.028520638 0 0 172 0.044991538
-0.16813673 0.019961124 -0.11583928 0 0 128 0.0
0.2883433 -0.07308117 0.04605338 0 0 136 0.009921218
-0.26837373 0.024664465 0.06640347 255 156 0 0.72321844
0.19353145 0.052348975 -0.027127786 128 0 0 1.0
0.060557324 0.061103705 0.002396147 182 255 74 0.5539183
0.18542866 -0.025558813 0.084122494 0 0 200 0.07316177
-0.27710518 -0.03370817 0.11066609 0 0 160 0.03335512
-0.23600918 -0.0071179997 -0.04799012 0 0 128 0.0
0.42464703 -0.024534328 0.083796516 128 0 0 1.0
-0.22394815 0.09346827 0.03613446 0 0 128 0.0
0.40851134 -0.07978693 0.012547909 128 0 0 1.0
-0.3648155 0.0035925745 -0.097072504 0 112 255 0.23680109
0.16931623 0.0606846 0.03371294 255 200 0 0.68212044
-0.19263136 -0.004463639 0.09304021 128 0 0 1.0
0.8294835 0.042150643 0.056740675 0 0 128 0.0
-0.03581456 -0.055408724 -0.490267 128 0 0 1.0
-0.044546008 -0.043347683 -0.057815913 164 0 0 0.9677841
-0.20241058 -0.0658166 0.61196756 128 0 0 1.0
-0.05064639 -0.06376763 -0.04666294 0 0 128 0.0
0.8292041 -0.055734698 -0.024217302 0 0 128 0.0
-0.2906331 0.0202871 0.0067036613 174 255 82 0.5470367
0.11334184 -0.039040174 -0.14948447 0 44 255 0.16970107
-0.060448885 -0.08672552 0.2233134 128 0 0 1.0
-0.5824032 0.21806021 0.017158113 255 68 0 0.8105033
0.012126903 -0.06956531 0.057532325 0 0 128 0.0
-0.3678424 0.043244984 0.043655146 255 152 0 0.72848374
-0.24965353 -0.034103997 -0.11763214 0 0 152 0.027062582
0.031033393 -0.0515436 -0.111624904 0 0 128 0.0
-0.098727554 -0.06653841 -0.40407017 0 0 216 0.088412456
0.17900231 -0.013078665 -0.06063326 0 0 128 0.0
0.5668881 -0.07412895 -0.008407564 0 0 128 0.0
-0.10808767 -0.06642199 0.6006982 0 0 128 0.0
0.7232625 0.05768098 0.051757928 128 0 0 1.0
0.3116272 -0.05792338 -0.040841978 0 0 128 0.0
0.07490018 0.05064925 0.05220032 0 0 128 0.0
0.9405708 -0.044395458 0.035203107 0 0 128 0.0
0.06793831 -0.045070697 0.15599976 0 0 128 0.0
0.23802689 -0.06719036 0.10440273 0 0 128 0.0
-0.2022243 -0.033102784 -0.049876116 0 0 164 0.038386043
-0.46051216 0.2635336 0.02039457 0 0 128 0.0
-0.30478972 -0.03182218 0.13853687 128 0 0 1.0
-0.62002987 0.25645527 0.13620849 128 0 0 1.0
0.05115065 0.060288772 -0.0026098818 254 255 1 0.6255006
0.18808302 -0.025814937 -0.06615154 255 64 0 0.8121587
-0.3985305 0.0016134477 0.059185483 42 255 214 0.41719913
-0.13032374 0.057890534 -0.0007006061 0 0 128 0.0
-0.7618053 0.2532654 0.21020459 0 0 168 0.040160935
-0.22543833 -0.06316225 -0.024170736 128 0 0 1.0
-0.36430326 0.058123372 0.03354995 74 255 182 0.44713175
0.06782189 -0.066608265 0.2833392 0 0 128 0.0
-0.21379636 0.018191556 -0.04761758 0 0 192 0.06422707
-0.26080647 0.009273836 0.07466924 0 180 255 0.3053357
-0.0018667042 -0.058249354 0.17634985 0 0 148 0.02117006
-0.46728772 0.2036242 0.003234367 0 0 128 0.0
-0.020447215 -0.062766425 0.15744336 0 0 128 0.0
-0.016325979 -0.07121847 0.08614818 50 255 206 0.42584118
-0.14774008 -0.036222827 0.07760301 255 248 0 0.6341853
0.11231734 -0.059320416 -0.29892027 255 72 0 0.8043827
0.00048496717 -0.06679453 -0.38609505 0 0 128 0.0
-0.21882571 0.05023014 0.042025276 190 255 66 0.5629716
-0.56892186 0.015537195 -0.0056135 0 0 128 0.0
-0.5095247 0.07696002 0.008054125 255 4 0 0.8710086
0.5367821 -0.05526902 -0.04030645 0 0 128 0.0
0.087869294 -0.06844769 0.15858427 0 0 128 0.0
-0.21125846 -0.017549166 0.16049354 128 0 0 1.0
0.5476324 0.067902595 -0.0008170252 226 255 30 0.5962268
0.7068474 0.007271424 0.08405264 0 0 128 0.0
-0.050809372 -0.06390733 0.2906503 214 255 42 0.58490163
-0.46051216 0.2635336 0.02039457 0 0 128 0.0
-0.5390486 0.20860696 0.0048642363 0 108 255 0.23358183
0.028891278 -0.062021345 0.42953855 128 0 0 1.0
-0.2991317 -0.008957424 -0.085058026 0 208 255 0.3327911
-0.071299165 -0.067865595 0.4587598 0 0 128 0.0
-0.08638711 -0.056014102 0.55487555 190 255 66 0.5616075
0.6186715 0.06252402 0.045401435 78 255 178 0.45185074
-0.15935871 0.04627189 0.051851064 0 0 128 0.0
0.066611126 -0.066096015 0.06100162 128 0 0 1.0
-0.25770974 0.107252315 0.002489283 0 0 128 0.0
-0.0152316345 -0.05482663 0.3596404 26 255 230 0.40266356
-0.2719129 -0.037736278 -0.040632423 0 184 255 0.30781934
-0.031576905 -0.065257795 0.49438408 128 0 0 1.0
-0.67246515 0.24933043 -0.088108204 0 68 255 0.19324385
0.9405708 -0.044395458 0.035203107 0 0 128 0.0
0.24892373 0.060591463 -0.011620737 132 0 0 0.9974729
0.021393878 -0.06476884 -0.26129356 255 140 0 0.74037707
-0.6420797 0.24711846 0.13557982 128 0 0 1.0
-0.22827896 -0.04099602 -0.044730384 22 255 234 0.39645267
-0.32616428 0.09437634 -0.0053340937 0 0 212 0.08352794
-0.61735225 0.2464665 -0.08196128 50 255 206 0.42676368
-0.71931225 0.2548254 0.13050394 0 0 128 0.0
-0.15498136 -0.059110854 -0.60223913 0 0 212 0.08510911
0.8359331 -0.06840112 0.012943735 0 0 128 0.0
0.0030229108 -0.042649172 -0.20359616 134 255 122 0.5071474
0.17825723 0.061150275 -0.0077788997 0 0 128 0.0
0.47698912 -0.065700196 -0.028431684 0 24 255 0.15198418
0.6700356 0.0046869144 0.085356526 0 0 128 0.0
0.3069471 0.041102875 0.06728826 190 255 66 0.56455487
0.10759072 -0.06341837 0.29779848 0 0 128 0.0
-0.6224048 0.25906307 -0.096210994 0 0 128 0.0
0.14144546 0.05532931 0.045657553 164 0 0 0.9666975
0.0016724432 -0.08744731 0.22601432 255 212 0 0.6677352
0.005514284 -0.06388405 -0.26173598 0 108 255 0.2334543
-0.07735297 -0.06455928 0.34306228 128 0 0 1.0
0.13699824 -0.04602533 -0.2505364 0 252 255 0.37618536
0.03005547 -0.046444435 -0.26662555 255 4 0 0.8743403
-0.018188685 -0.14421336 0.2491352 0 140 255 0.26525244
-0.31265968 -0.009236833 0.09613697 0 108 255 0.23243068
-0.31817794 -0.012566428 -0.07481313 0 0 128 0.0
0.70416975 0.015350923 -0.05800218 128 0 0 1.0
-0.49802244 0.0009847798 -0.018489474 128 0 0 1.0
-0.37452486 -0.053196754 0.012524625 0 0 128 0.0
0.05455009 -0.13322338 0.24641098 0 0 128 0.0
-0.6656662 0.25650185 0.082725465 128 0 0 1.0
-0.03574471 -0.053709 0.4531018 255 56 0 0.8213819
0.80484915 0.01630556 -0.04936387 255 84 0 0.7938793
-0.5619599 0.24453394 0.025330748 232 0 0 0.8997684
-0.21384296 -0.034103997 -0.10619977 255 228 0 0.6544027
-0.14415437 -0.0692859 0.233535 0 0 144 0.017674202
0.73369366 -0.09350113 0.012710897 0 0 128 0.0
0.02516586 -0.07431522 0.18317203 128 0 0 1.0
-0.23372735 -0.020599356 0.07653195 255 20 0 0.85797554
-0.17898701 -0.06847097 0.6020254 255 12 0 0.8664348
0.6804668 0.017772445 0.08342398 0 44 255 0.16878109
0.25816745 -0.04381336 0.076951064 114 255 142 0.4866031
0.03326864 -0.05135733 -0.16366434 0 0 128 0.0
-0.07607236 -0.07638748 -0.38290516 0 236 255 0.36002642
-0.70503926 0.25908637 -0.16119625 0 0 128 0.0011732768
0.6690111 -0.007374123 0.08556609 255 92 0 0.78514457
-0.027362527 -0.06025177 0.2844801 110 255 146 0.4844743
-0.6419167 0.2569675 -0.13395414 0 12 255 0.1407665
-0.29512691 -0.055478577 -0.01907157 0 0 128 0.0
0.8120671 0.05493348 -0.017930662 128 0 0 1.0
-0.33319604 -0.015476907 -0.04030645 0 24 255 0.15115903
0.06998729 -0.06311568 0.20943622 128 0 0 1.0
-0.15372401 -0.014149729 -0.13146275 0 0 128 0.0
-0.1240371 -0.06730677 0.61718315 0 12 255 0.13897702
-0.5048912 0.26222968 0.019579636 128 0 0 1.0
0.041324858 -0.06700409 0.15988818 0 0 128 0.0
-0.28818834 0.07714629 -0.003657656 0 0 128 0.0
-0.12354815 0.02685315 -0.047151905 18 255 238 0.392339
0.05094109 -0.08355891 0.21027443 128 0 0 1.0
-0.3117283 0.027202407 -0.03618521 0 0 128 0.0
0.820263 0.0497179 -0.023798194 194 255 62 0.5653805
0.11217764 -0.06632885 0.23029856 0 0 128 0.0
-0.091719106 -0.043766797 -0.05166897 0 88 255 0.21335672
0.11401706 0.019798137 -0.053974077 230 255 26 0.60001975
0.9076939 0.03553803 0.037135664 122 255 134 0.49781117
0.32692465 -0.07885557 -0.003727508 128 0 0 1.0
0.123656586 -0.0408796 0.23402397 152 0 0 0.97758675
-0.3487729 0.015024949 0.06312045 0 0 128 0.0
0.3920729 -0.03710761 0.0789069 0 0 188 0.059063867
-0.0735577 -0.049680896 -0.21374792 0 0 128 0.0
-0.25496224 -0.0077233827 -0.08468548 0 208 255 0.3323919
0.15210946 -0.08351234 0.013223141 0 0 128 0.0
0.5752936 0.04922894 -0.038583446 0 0 184 0.057370648
-0.22657922 -0.07464119 0.013339561 255 4 0 0.87232774
-0.26837373 0.024664465 0.06640347 232 0 0 0.90190643
0.754393 -0.07207997 0.001441509 255 176 0 0.70574176
-0.21540299 0.03435055 0.06237537 166 255 90 0.53737205
0.60765815 -0.06153238 0.05646127 0 0 192 0.06301087
0.55836624 0.034001295 0.075600594 255 200 0 0.68033755
0.04507356 -0.050239705 -0.32695404 255 108 0 0.7723942
-0.5646143 -0.0108434195 0.011942529 128 0 0 1.0
0.004256957 -0.06265 -0.4367374 128 0 0 1.0
0.8129985 0.03272068 -0.04077213 128 0 0 1.0
-0.11460715 -0.082115315 0.021558765 0 0 128 0.0
0.13161966 -0.065094806 0.23462936 0 0 128 0.0
0.044398326 -0.06963517 -0.038164333 122 255 134 0.49481824
0.13578747 -0.06234732 -0.24303901 150 255 106 0.52250326
-0.15789184 -0.06739992 -0.5127592 58 255 198 0.43468276
0.7360453 -0.14365454 0.00723919 128 0 0 1.0
0.26021641 -0.036758352 0.15562722 50 255 206 0.4269789
-0.12631893 -0.076340914 0.041466463 0 156 255 0.27972555
-0.19137402 -0.002228389 0.10104986 0 0 128 0.0
-0.024079503 -0.06753962 -0.36886495 228 0 0 0.90476775
-0.05588526 -0.062044624 -0.30415913 188 0 0 0.9431053
-0.6739321 0.24844563 -0.15444393 216 0 0 0.91407007
-0.20473896 0.038844336 -0.033833537 0 0 128 0.0
0.57419926 0.0422205 -0.044334557 128 0 0 1.0
0.27388403 0.009110848 -0.0588404 248 0 0 0.88422155
0.73378676 -0.14002228 0.01834559 122 255 134 0.49641752
0.049683765 -0.110940725 -0.20701888 0 0 240 0.11266044
-0.36278984 -0.04544323 0.040884368 122 255 134 0.4946498
0.10149035 -0.0140565885 0.085798934 128 0 0 1.0
-0.27459055 -0.060903717 0.04132676 0 0 236 0.10652661
-0.014370133 -0.057900097 0.29800802 248 0 0 0.88265103
-0.3175725 -0.032637108 0.11176042 136 0 0 0.9956794
0.19511476 -0.03356846 0.18254335 0 0 128 0.0
-0.2668836 -0.008212344 0.07189847 0 0 128 0.0
0.098533295 -0.042928576 -0.20327018 128 0 0 1.0
0.8294835 0.042150643 0.056740675 0 0 128 0.0
-0.7520494 0.25191492 -0.19207065 0 0 128 0.0
-0.28381094 -0.064512715 0.029149301 134 255 122 0.5082577
-0.54011965 0.18183051 0.005586036 128 0 0 1.0
0.13380834 -0.072429225 -0.046383534 128 0 0 1.0
0.26277766 -0.066678114 -0.047640868 128 0 0 1.0
-0.22152664 0.13044304 0.018252455 250 255 6 0.62256354
0.34285083 0.011089976 -0.058723982 0 236 255 0.35922286
-0.21018739 -0.027840633 -0.12536238 0 0 128 0.0
0.46814132 -0.038853902 -0.052553758 0 0 128 0.0
0.0587179 -0.042393047 -0.21356165 0 0 144 0.01937168
-0.09479258 -0.07329073 -0.024939101 0 180 255 0.30207783
-0.3284228 -0.029959463 0.10801173 0 0 128 0.0
-0.3231141 0.12189786 0.000370452 0 0 128 0.0
-0.13591188 -0.06339509 0.6584422 0 0 128 0.0
-0.3335685 -0.01580288 0.09150347 128 0 0 1.0
0.018972356 -0.11764647 0.23034512 0 0 128 0.0
-0.33575726 0.10909174 -0.0020743534 255 244 0 0.63741755
0.2733485 -0.0535693 0.13499771 128 0 0 1.0
-0.5095247 0.07696002 0.008054125 0 0 128 0.0
-0.24006057 0.014512702 0.1622864 0 80 255 0.20759225
-0.101312056 -0.07329073 0.40679023 255 72 0 0.80662525
-0.080077186 0.012766413 0.08000126 0 0 128 0.0
-0.26883942 0.008575321 0.08398279 0 0 128 0.0
-0.62654936 0.2587604 -0.10468633 198 255 58 0.5720086
-0.0069192937 0.044688582 0.05834726 0 0 128 0.0
0.21218182 -0.009260118 0.08621804 156 0 0 0.97482187
0.724287 -0.070263825 -0.010340124 255 216 0 0.66579574
0.78231037 -0.024185074 0.07657852 0 108 255 0.23363182
-0.033160206 -0.066445276 0.33777687 128 0 0 1.0
0.11217764 -0.06632885 0.23029856 0 36 255 0.16382147
0.1315498 -0.041810952 0.24631785 0 0 128 0.0
-0.36011216 0.08459712 0.027845405 128 0 0 1.0
-0.026314754 -0.013381359 -0.060959235 0 68 255 0.19284824
-0.620449 0.2280257 0.011849394 128 0 0 1.0
0.80484915 0.01630556 -0.04936387 158 255 98 0.5319604
-0.12280306 -0.05422125 0.53827417 128 0 0 1.0
0.024886455 0.05062597 -0.026103297 0 0 128 0.0
0.009053431 0.021614281 -0.052577045 0 0 128 0.0
-0.006290634 -0.055990823 -0.28986284 255 184 0 0.69744366
-0.49241105 0.19328617 0.0030015274 0 0 128 0.0
0.049683765 -0.110940725 -0.20701888 0 0 128 0.0
0.52188045 0.058263075 -0.025777323 128 0 0 1.0
0.8330459 -0.054500654 0.050337613 0 0 128 0.0
-0.39862365 -0.003928112 -0.062542535 182 255 74 0.55557775
-0.32819 -0.009586088 -0.053601533 128 0 0 1.0
-0.10494434 -0.02895826 0.08212008 0 0 128 0.0
0.7037506 0.014698974 0.08326099 0 0 128 0.0
0.6871492 -0.042998426 -0.048013408 255 232 0 0.65005326
0.23805018 -0.069006495 -0.05627918 0 236 255 0.35726428
-0.28518468 0.014815396 0.069034554 0 0 128 0.0
-0.42838043 -0.00860817 -0.047757283 0 0 128 0.0
-0.76478565 0.2554308 -0.18049857 0 0 128 0.0
-0.2404797 -0.039063454 0.0698262 0 0 128 0.0
-0.15092996 -0.06099685 -0.54430884 0 252 255 0.3741126
-0.67029977 0.2592959 0.1431005 58 255 198 0.43294668
-0.074209645 -0.083931446 0.017390952 0 0 128 0.0
-0.39974126 -0.0030200398 -0.051249865 0 0 128 0.0
-0.6536984 0.24814294 -0.13462937 0 0 128 0.0
0.006096382 -0.0873076 -0.21079087 255 248 0 0.63157
0.00048496717 -0.06679453 -0.38609505 0 0 128 0.0
0.7241007 0.04331484 0.067358114 0 0 128 0.0
-0.32819 -0.009586088 -0.053601533 0 0 128 0.0
0.15725519 -0.068610676 -0.13318577 255 16 0 0.86254346
-0.023148151 -0.08821568 -0.2126303 0 0 240 0.11004047
-0.54833895 0.18327412 0.0063078357 255 108 0 0.7692818
-0.1491604 0.028971981 -0.098655805 0 0 128 0.0
-0.24527615 0.025665672 0.102982424 128 0 0 1.0
0.8087143 0.062640436 0.018950969 255 28 0 0.85060495
-0.188091 0.037773278 0.12626629 132 0 0 0.99692845
0.038088404 -0.078599446 0.083866365 255 64 0 0.81197864
0.168641 -0.036339246 -0.1789851 236 0 0 0.89445794
-0.4813978 0.008039789 0.047287427 255 160 0 0.7208626
0.74368244 -0.030588131 -0.051692255 244 0 0 0.8886574
-0.29829353 -0.003346014 -0.06319448 230 255 26 0.60193115
-0.09793591 -0.064675696 0.5995573 0 0 176 0.050881356
0.09923182 -0.079670504 0.036972675 0 48 255 0.17404309
-0.15437597 -0.06788887 -0.5244011 255 104 0 0.7736015
-0.094862424 0.04520083 -0.03048066 0 0 128 0.0
0.112969294 -0.068936646 0.16868947 22 255 234 0.39708987
0.9419678 -0.04774833 -0.005171106 148 0 0 0.9817099
-0.093395546 -0.05950668 -0.43354753 0 0 128 0.0
-0.17663534 0.021730699 0.107988454 0 0 128 0.0
-0.47271287 0.267259 0.008915628 0 0 128 0.0
0.17141178 -0.03948256 -0.20629707 0 0 128 0.0
-0.14373524 0.05456094 -0.01164402 0 0 128 0.0
0.7725079 0.025432834 -0.049619995 0 0 128 0.0
-0.6671564 0.24674591 0.0036534755 118 255 138 0.49204326
0.75523126 -0.12186085 -2.537445e-05 0 216 255 0.3391315
0.2641514 0.037773278 -0.04421814 0 0 128 0.0
0.13699824 -0.04602533 -0.2505364 0 20 255 0.14528431
-0.10084639 -0.055408724 -0.19318828 255 56 0 0.8206207
-0.0076178126 -0.07524657 -0.06459151 128 0 0 1.0
-0.40498015 0.15095611 0.0016743483 0 204 255 0.32846245
0.037785713 -0.050472546 -0.14734237 0 0 128 0.0
0.09934824 -0.059087574 0.34357455 255 212 0 0.66800195
0.8064091 -0.0691462 0.002233161 128 0 0 1.0
0.024793314 -0.053150192 -0.2059711 0 0 128 0.0
0.0698243 -0.04916865 -0.266579 178 255 78 0.5510887
-0.3776449 0.1466486 0.00234958 0 0 128 0.0
0.5419744 0.014210013 0.08384309 255 116 0 0.763695
0.81923854 -0.01717663 0.07431999 255 212 0 0.6684723
-0.23756921 -0.007211136 0.050081488 0 0 172 0.043738663
-0.1906755 0.038844336 -0.1083186 0 0 128 0.0
0.09362041 -0.06241717 -0.30434537 255 84 0 0.79565495
0.23481373 -0.028189898 -0.11174133 128 0 0 1.0
-0.444749 -0.0065126214 -0.017045874 0 0 128 0.0
0.254605 0.024478195 -0.052879732 0 0 128 0.0
-0.00084221095 -0.058365773 0.14377573 168 0 0 0.9636638
-0.54850185 0.13288784 0.015924068 26 255 230 0.40206444
-0.21544954 -0.0046731965 0.16556942 255 148 0 0.7331459
0.27360463 -0.08130037 0.00886906 0 0 128 0.0
-0.30339268 0.00086836284 0.06998919 0 0 128 0.0
0.124145545 -0.07801735 -0.014880476 0 0 152 0.027197309
-0.63712025 0.25952876 -0.10752695 255 176 0 0.7057403
-0.31356773 -0.009912062 -0.043403205 0 232 255 0.35394105
0.18105128 -0.029633498 0.13034095 0 0 128 0.0
0.5273754 0.06592346 0.033899207 128 0 0 1.0
-0.011645917 -0.053313177 -0.3711468 0 136 255 0.26010537
0.057111315 -0.04681698 -0.08994763 150 255 106 0.52236694
0.15336679 -0.06765603 -0.15013643 220 0 0 0.9129409
0.25816745 -0.04381336 0.076951064 246 255 10 0.6158479
-0.12191827 -0.07883229 -0.48232722 255 236 0 0.64602476
-0.36584 0.14678831 0.005329914 0 0 128 0.0
-0.21358684 -0.006303064 0.07406387 0 0 128 0.0
-0.538094 -0.019016055 0.0135956835 255 172 0 0.7095572
-0.01413729 -0.039761975 -0.055161554 202 255 54 0.5750339
0.10032616 -0.04223006 -0.19137214 0 196 255 0.3209138
0.51091367 0.03814582 -0.046732794 244 0 0 0.88663584
0.68600833 0.04338469 0.06987277 0 0 128 0.0
0.3984061 0.06629601 0.0038164628 0 112 255 0.23695551
-0.0039389627 -0.066352144 0.30157045 148 0 0 0.98270214
0.1895732 -0.079856776 -0.008104872 0 0 128 0.0
0.67965186 -0.016804086 -0.059166376 0 0 128 0.0
0.2578182 -0.034616236 -0.055603944 0 0 128 0.0
-0.24129462 0.054071978 -0.015951533 226 255 30 0.5999163
0.18016651 -0.0499603 -0.22669375 148 0 0 0.9842931
-0.15370074 -0.068168275 -0.6297839 0 0 144 0.015761893
-0.6457818 0.24730472 0.12179578 0 0 128 0.0
0.048170313 -0.044162624 -0.26681182 0 0 128 0.0
-0.10620168 -0.057061877 -0.5716208 0 208 255 0.33273503
0.08083757 -0.044139333 -0.22189726 0 0 128 0.0
0.021812985 -0.044185903 -0.18673865 255 204 0 0.67495877
0.64146626 -0.03952913 -0.051203296 0 0 128 0.0
0.121561036 -0.036176257 -0.08633864 0 0 164 0.038808472
0.85679543 0.050346565 0.0366467 0 0 128 0.0
-0.73444676 0.24981937 -0.21561062 0 216 255 0.3380859
-0.7252962 0.25091374 0.25169644 0 0 128 0.0
-0.3648155 0.0035925745 -0.097072504 0 196 255 0.3206239
-0.31366086 -0.026513455 0.14549874 0 0 128 0.0
-0.06920362 -0.066515125 -0.03495116 0 0 128 0.0
0.1347397 -0.07089249 0.053457648 170 255 86 0.54405195
0.23763108 -0.06642199 -0.08859717 82 255 174 0.45538244
0.64121026 -0.043464106 0.07334207 0 0 128 0.0
-0.008130059 -0.06954203 -0.37971523 94 255 162 0.469641
0.029729495 -0.05235854 -0.2527251 0 0 128 0.0
0.026330054 -0.051077925 0.38557863 255 144 0 0.7347534
0.026376626 -0.115574226 -0.22399281 255 8 0 0.8704816
-0.26532358 -0.045280248 0.061164606 250 255 6 0.62093955
0.7156021 0.0064564883 -0.058491144 0 0 128 0.0
0.3708846 0.008924576 0.08421563 128 0 0 1.0
0.0019984175 -0.07426865 0.05159494 176 0 0 0.9550752
-0.05064639 -0.06376763 -0.04666294 0 0 128 0.0
0.21960936 -0.024743881 -0.06696647 255 192 0 0.68638515
-0.0104584405 -0.120719954 -0.21181536 0 0 128 0.0
0.067356214 -0.06642199 -0.21186192 0 0 128 0.0
-0.23372735 -0.020599356 0.07653195 0 48 255 0.17537953
-0.54896754 0.12231698 0.010033254 0 0 128 0.0
0.24114694 -0.08199889 0.014713309 255 64 0 0.81394273
0.6047011 -0.008701306 -0.06037714 255 132 0 0.74609184
-0.036699355 -0.055152602 0.4107252 255 120 0 0.756884
0.2866436 -0.062021345 0.070035756 255 116 0 0.76339453
-0.20455268 -0.06947217 0.6963483 0 0 128 0.0
0.050359 -0.06271985 0.18661803 0 0 128 0.0
-0.2933573 0.09609935 -0.00754606 0 0 128 0.0
0.40876746 -0.019179037 -0.059399214 0 0 140 0.012025743
-0.43322346 0.1880706 0.003327502 0 0 220 0.09394321
0.05110408 -0.05352273 -0.38146153 255 168 0 0.7116542
-0.058446478 -0.06760947 0.4313314 0 0 128 0.0
-0.7618053 0.2532654 0.21020459 210 255 46 0.5815801
-0.59986603 0.19116734 0.013339561 0 112 255 0.23621786
-0.76976836 0.25438303 -0.18741389 128 0 0 1.0
-0.15540045 0.024012519 0.07315579 94 255 162 0.4702865
-0.29007432 0.0166781 -0.13057798 0 0 128 0.0
0.1008384 -0.039738685 0.14272796 0 0 128 0.0
-0.21242262 -0.06460585 0.65248156 26 255 230 0.4020915
0.018157415 -0.054197967 0.23178872 0 0 128 0.0
-0.09067133 -0.024604179 -0.05790905 244 0 0 0.88781244
-0.0927436 -0.06830798 -0.49080253 0 144 255 0.26975474
-0.029923752 -0.082441285 0.03415533 255 60 0 0.8192644
0.045655657 -0.049005657 0.15383437 128 0 0 1.0
-0.28606948 0.008389049 0.06207268 0 0 128 0.0
0.25127542 -0.06507152 -0.07998214 0 0 164 0.037233636
-0.12573682 0.058379494 0.022606539 160 0 0 0.9718106
0.14598581 -0.06963517 -0.11653781 255 104 0 0.7731271
-0.15092996 -0.06099685 -0.54430884 0 0 128 0.0
-0.29657054 0.007271424 0.08016424 234 255 22 0.60573643
-0.66617846 0.25405705 -0.016859604 170 255 86 0.543716
0.06793831 -0.045070697 0.15599976 128 0 0 1.0
0.077205285 -0.06991457 -0.18429384 255 220 0 0.66200817
-0.044336464 -0.060764015 -0.041796617 255 240 0 0.6406444
-0.47532067 -0.0014600235 -0.022098472 128 0 0 1.0
-0.41289666 -0.009097131 0.06952351 255 220 0 0.6624464
0.7129943 -0.029051399 -0.054020643 86 255 170 0.4594223
0.13916363 -0.033824585 0.108197995 255 0 0 0.8774096
-0.19433106 0.058379494 -0.010107284 158 255 98 0.5304878
0.89342093 -0.0058141067 0.06358613 196 0 0 0.9369057
0.70416975 0.015350923 -0.05800218 128 0 0 1.0
0.119069666 -0.081346944 0.03215292 255 224 0 0.65839744
0.058671333 -0.06542078 -0.26271388 0 0 128 0.0
0.08249072 -0.0667014 0.24031061 0 0 128 0.0
0.60521334 0.06983515 0.017833347 0 176 255 0.29974446
0.11585649 -0.07906512 -0.21884708 180 0 0 0.9501118
-0.60165894 0.25978488 0.06123446 128 0 0 1.0
0.7719025 0.06487569 0.029847816 0 0 128 0.0
0.23045963 -0.030820973 -0.13199827 196 0 0 0.93540937
-0.25298312 0.036166694 0.12414745 255 148 0 0.73045486
-0.26851347 0.009157415 -0.04060914 0 44 255 0.17192176
-0.07805148 -0.06656169 0.40159792 0 252 255 0.3750511
-0.37452486 -0.053196754 0.012524625 0 64 255 0.18884383
-0.7472762 0.25042477 -0.23323652 0 0 128 0.0
-0.22990882 0.010810572 0.06940709 128 0 0 1.0
0.031592205 -0.052731078 -0.39943665 106 255 150 0.48157686
0.033175506 -0.083628766 -0.22504058 0 0 128 0.0
-0.10047384 -0.05808637 -0.47906747 0 0 128 0.0
-0.31817794 -0.012566428 -0.07481313 0 168 255 0.2913585
0.44793087 0.02294146 -0.054719158 128 0 0 1.0
0.49040064 -0.041810952 0.076299116 0 0 128 0.0
0.013197958 0.0132553745 -0.05606962 178 255 78 0.55226123
0.098533295 -0.042928576 -0.20327018 160 0 0 0.97000927
-0.02377681 -0.064093605 -0.06349717 0 0 128 0.0
-0.23361096 -0.031775605 0.14757101 0 0 128 0.0
0.40287665 0.012463724 0.083796516 0 0 128 0.0
0.48532474 0.033093225 -0.05031851 162 255 94 0.5342267
-0.14392152 -0.0659796 0.056135293 0 132 255 0.25619566
0.5887284 -0.033009652 -0.05425348 255 224 0 0.657426
-0.5901567 0.18597504 0.010871472 244 0 0 0.88873106
0.786548 -0.04467487 -0.040259883 128 0 0 1.0
-0.10620168 -0.057061877 -0.5716208 238 255 18 0.6109
-0.070949905 -0.06723692 -0.5068451 255 240 0 0.63980037
-0.23253989 0.11554137 0.032502178 0 0 128 0.0
0.049683765 -0.110940725 -0.20701888 234 255 22 0.60456043
-0.23202765 0.070650086 -0.01001415 255 20 0 0.85619825
-0.76478565 0.2554308 -0.18049857 248 0 0 0.8848879
0.0016724432 -0.08744731 0.22601432 255 88 0 0.78966004
0.058019385 -0.0440462 0.24904205 0 28 255 0.15545473
0.64121026 -0.043464106 0.07334207 6 255 250 0.38326228
-0.28509158 0.057192016 -0.005031403 0 0 128 0.0
-0.3175725 -0.032637108 0.11176042 0 0 128 0.0
-0.21926808 0.037749995 -0.10945951 0 0 172 0.04577957
-0.2436463 -0.027863923 0.15283316 0 0 236 0.107183404
-0.050809372 -0.06390733 0.2906503 0 0 216 0.09019175
-0.34185758 0.11952291 0.001557928 244 0 0 0.8890089
-0.10047384 -0.05808637 -0.47906747 255 152 0 0.7271751
-0.55578977 -0.014592116 0.007751435 0 112 255 0.2387231
-0.3297733 0.015956301 0.14875849 50 255 206 0.42468464
0.13781317 -0.0387142 0.21665421 128 0 0 1.0
-0.026268184 -0.05722487 0.339593 0 20 255 0.14782543
0.048170313 -0.044162624 -0.26681182 128 0 0 1.0
-0.21908183 -0.05897115 0.05557648 255 244 0 0.6375511
-0.04228748 -0.06113655 0.3107443 0 0 128 0.0
